ply
format ascii 1.0
element vertex 488
property float x
property float y
property float z
property float vx
property float vy
property float vz
property float alpha
property float det_fe
end_header
0.104319314 0.070827214 0.105799089 0.000017307 -0.760174025 0.000626339 0.326598632 1.000000000
0.094157995 0.070697018 0.102163890 -0.002796920 -0.760116366 0.000244817 0.326598632 1.000000000
0.098625441 0.071600251 0.105306887 0.000017361 -0.758975459 0.000516362 0.326598632 1.000000000
0.096892265 0.068940095 0.094190096 -0.000837987 -0.760527817 -0.003135717 0.326598632 1.000000000
0.103998453 0.071974380 0.102199245 0.000227552 -0.757858658 0.000582393 0.326598632 0.999993815
0.096186211 0.070223017 0.096080656 -0.001073678 -0.756610089 0.000180202 0.326598632 0.999836968
0.096495632 0.070496170 0.103064750 0.000984598 -0.756395206 0.000362361 0.326598632 1.000000000
0.104107379 0.067343563 0.100812565 -0.000064666 -0.760299339 0.000387688 0.326598632 1.000000000
0.105120317 0.070255907 0.099396324 0.000941538 -0.757608310 -0.001349494 0.326598632 1.000000000
0.100845371 0.069706508 0.102727431 0.000716662 -0.757952012 0.000635112 0.326598632 1.000000000
0.104134423 0.074785241 0.100249696 -0.000367241 -0.753165817 -0.002445893 0.326598632 1.000000000
0.101041147 0.071412251 0.102968252 0.000191985 -0.755689440 0.000397172 0.326598632 0.999908508
0.097311855 0.071950280 0.105583408 0.000210205 -0.757560274 0.000286218 0.326598632 1.000000000
0.094186718 0.068414503 0.097555419 -0.001549738 -0.761354192 -0.000262109 0.326598632 1.000000000
0.097521782 0.070253956 0.099080982 -0.000235697 -0.757145994 0.000233783 0.326598632 1.000000000
0.102536483 0.068685303 0.094167915 0.000227851 -0.758261934 -0.001717617 0.326598632 1.000000000
0.105115869 0.071942954 0.103481850 0.000601187 -0.756588447 -0.000168666 0.326598632 1.000000000
0.104200730 0.074415586 0.101813310 0.001211988 -0.751052089 0.002321306 0.326598632 1.000000000
0.098449714 0.067856707 0.099393318 -0.000479446 -0.759827728 -0.000262549 0.326598632 1.000000000
0.101095767 0.072422495 0.102026900 0.000027383 -0.756514897 0.001063836 0.326598632 0.999921069
0.098595010 0.071585638 0.097296857 -0.000116086 -0.754727593 0.000337212 0.326598632 1.000000000
0.102660847 0.073886596 0.105660891 0.000046366 -0.756201532 0.000457835 0.326598632 1.000000000
0.094484446 0.069142792 0.096831542 -0.001146583 -0.758672607 -0.000000811 0.326598632 1.000000000
0.099272245 0.067981069 0.102527976 0.000037347 -0.759157877 0.000174273 0.326598632 1.000000000
0.099703886 0.074260821 0.096420701 -0.000907152 -0.756388083 0.000030501 0.326598632 1.000000000
0.095671821 0.072658822 0.100759429 -0.000699323 -0.754822691 0.001605575 0.326598632 0.999766224
0.096436879 0.071413121 0.101252423 0.000042245 -0.755737944 -0.000226586 0.326598632 0.999972625
0.102337605 0.071884902 0.105314352 0.000506974 -0.758212771 0.000428225 0.326598632 1.000000000
0.097547431 0.072088843 0.104565577 -0.000123489 -0.758363424 0.000141184 0.326598632 0.999789654
0.096621218 0.070747588 0.095265657 -0.000579549 -0.755892160 -0.000686815 0.326598632 1.000000000
0.097892305 0.074161787 0.098998239 0.000009162 -0.756096934 0.000029004 0.326598632 1.000000000
0.104882337 0.069945369 0.095464855 0.000899407 -0.757128425 -0.000029480 0.326598632 1.000000000
0.094005482 0.072275587 0.097265600 -0.002316996 -0.758389466 0.000208845 0.326598632 1.000000000
0.095975973 0.069532398 0.098230878 0.000054465 -0.757810301 0.000009690 0.326598632 1.000000000
0.102309445 0.070972986 0.100408799 0.001293631 -0.758513018 -0.000426013 0.326598632 1.000000000
0.096019680 0.069047003 0.097233291 0.000494999 -0.757530446 0.000875817 0.326598632 1.000000000
0.098846252 0.071559954 0.096624861 0.000381559 -0.755387889 -0.000394660 0.326598632 1.000000000
0.096962601 0.069124721 0.094778211 -0.000949617 -0.759719851 -0.002044379 0.326598632 1.000000000
0.095777111 0.072793295 0.102355932 -0.000365766 -0.756021994 0.000183259 0.326598632 1.000000000
0.105719580 0.069227204 0.105973270 0.000585926 -0.759381103 0.001072718 0.326598632 1.000000000
0.098140818 0.067357155 0.098932484 -0.000125034 -0.760756123 0.000088600 0.326598632 1.000000000
0.100371031 0.072541013 0.101612852 0.000149414 -0.756322555 0.000833660 0.326598632 1.000000000
0.101112551 0.071517629 0.099372228 0.000622765 -0.757194089 -0.002297105 0.326598632 1.000000000
0.096906361 0.070052045 0.094969578 -0.000180065 -0.756793312 -0.001983191 0.326598632 1.000000000
0.105801781 0.070856921 0.103637367 0.001150920 -0.757888626 -0.000355609 0.326598632 1.000000000
0.103580334 0.073626298 0.098784891 0.000650693 -0.756858349 -0.001941062 0.326598632 1.000000000
0.102349924 0.071160953 0.095807764 0.000150077 -0.756703119 -0.000365293 0.326598632 1.000000000
0.096642887 0.069702739 0.104300898 0.001887924 -0.756041582 0.001338664 0.326598632 1.000000000
0.098183820 0.073570615 0.102534045 -0.000484166 -0.757389891 0.001045852 0.326598632 1.000000000
0.098770715 0.074618947 0.095154273 -0.000282266 -0.755826699 0.000096194 0.326598632 0.999873349
0.102108150 0.073798717 0.100213078 -0.001221514 -0.752712710 0.000612293 0.326598632 1.000000000
0.100497370 0.068766962 0.102822761 -0.000406707 -0.759513493 0.000738996 0.326598632 1.000000000
0.096098964 0.068923809 0.102348839 -0.000225991 -0.757339982 -0.000789584 0.326598632 1.000000000
0.097129756 0.071226512 0.105786481 0.000168972 -0.758804838 0.000640078 0.326598632 1.000000000
0.100699388 0.074817781 0.105955259 -0.000413920 -0.755673635 0.000938829 0.326598632 1.000000000
0.097346663 0.068716701 0.104591969 0.000394337 -0.758760005 0.000648612 0.326598632 1.000000000
0.104276460 0.073980598 0.102405230 0.001772398 -0.757805985 0.004400778 0.326598632 1.000000000
0.104211499 0.074309977 0.098853342 0.001181000 -0.756030645 -0.001207201 0.326598632 1.000000000
0.102027707 0.073490823 0.105227680 0.000331057 -0.755738774 0.000335035 0.326598632 1.000000000
0.105281943 0.070186234 0.100968630 0.000831376 -0.756883327 0.000817552 0.326598632 1.000000000
0.097664425 0.069477766 0.105684823 -0.000223047 -0.758023267 0.001119778 0.326598632 1.000000000
0.105934516 0.070794192 0.099826961 0.002478228 -0.758439392 -0.000810519 0.326598632 1.000000000
0.099927972 0.067349726 0.096110775 0.005876790 -0.766897264 -0.001871476 0.326598632 1.000000000
0.102930273 0.070138411 0.096146270 -0.000079639 -0.758339729 0.000438013 0.326598632 1.000000000
0.100510302 0.069671328 0.102651380 -0.000834102 -0.758204362 0.000509944 0.326598632 1.000000000
0.097005585 0.072297660 0.100105820 0.001103275 -0.756949529 0.000460196 0.326598632 1.000000000
0.099840099 0.075040387 0.101078539 -0.000771876 -0.754818577 0.000114481 0.326598632 1.000000000
0.098201136 0.070680763 0.104872856 -0.000150825 -0.757169380 0.000086225 0.326598632 0.999595245
0.104370439 0.072558672 0.101741446 0.000970919 -0.758135866 0.000561616 0.326598632 0.999798236
0.100864161 0.071201988 0.096761632 0.000511803 -0.756701692 -0.000826450 0.326598632 1.000000000
0.105934701 0.067555504 0.103222594 0.000201100 -0.759787040 -0.000125521 0.326598632 1.000000000
0.104601773 0.069443587 0.099639133 -0.000178337 -0.757548054 -0.000282321 0.326598632 1.000000000
0.097968887 0.074832438 0.102972801 -0.000079140 -0.756831886 0.000187689 0.326598632 1.000000000
0.105765195 0.071786367 0.100633243 0.002409091 -0.755073580 -0.000174654 0.326598632 1.000000000
0.096289887 0.069652541 0.094903671 -0.002064826 -0.757614983 -0.001609341 0.326598632 1.000000000
0.098471916 0.071089889 0.097222003 -0.000051684 -0.755231777 0.000377506 0.326598632 1.000000000
0.105160665 0.073961185 0.098735821 0.001017440 -0.757275632 -0.000584791 0.326598632 1.000000000
0.102053963 0.068879416 0.094844929 0.000083622 -0.757110708 -0.000457280 0.326598632 1.000000000
0.097543511 0.069239676 0.098304204 0.000200419 -0.759752056 0.000907993 0.326598632 1.000000000
0.095639446 0.073996769 0.097870534 0.000016379 -0.756957309 -0.000018467 0.326598632 0.999594976
0.097558479 0.071629682 0.102507363 -0.000127935 -0.758013111 0.001228292 0.326598632 1.000000000
0.101338659 0.069256618 0.099037731 0.001773435 -0.757981414 -0.000950516 0.326598632 0.999580735
0.101534340 0.067247497 0.094979312 -0.000380825 -0.760557946 0.000064563 0.326598632 1.000000000
0.098761634 0.067772663 0.096331665 -0.000364861 -0.765090704 0.002176190 0.326598632 1.000000000
0.094330767 0.074302401 0.094609170 -0.002023344 -0.751231952 -0.000014181 0.326598632 1.000000000
0.102064573 0.070715243 0.100946576 0.001587050 -0.757563029 0.000511825 0.326598632 1.000000000
0.105783114 0.068448028 0.097937686 0.001997308 -0.757567954 -0.000303284 0.326598632 1.000000000
0.097002796 0.074090882 0.104067281 -0.000277693 -0.756499544 0.000279193 0.326598632 1.000000000
0.100445033 0.069634331 0.094465746 0.000437162 -0.756247051 -0.000349281 0.326598632 0.999902716
0.097258485 0.073830610 0.097919541 -0.000108402 -0.756927070 -0.000032808 0.326598632 1.000000000
0.104104169 0.070864114 0.105583322 -0.000226426 -0.760053044 0.000634592 0.326598632 1.000000000
0.102394531 0.070497143 0.096332685 0.000477547 -0.758687478 -0.000127305 0.326598632 0.999965819
0.105634791 0.068268654 0.095660261 0.000755926 -0.759803778 -0.000000430 0.326598632 1.000000000
0.098785830 0.067533675 0.102574999 0.000117307 -0.759786466 -0.000146014 0.326598632 1.000000000
0.097010043 0.073159765 0.099202278 0.000030551 -0.756440343 -0.000124082 0.326598632 1.000000000
0.099140646 0.067852780 0.096211897 0.003885083 -0.762250581 0.000399842 0.326598632 1.000000000
0.104982725 0.067672379 0.102261908 0.000344262 -0.759557009 -0.000139689 0.326598632 1.000000000
0.095126134 0.069125498 0.099307851 -0.000335867 -0.753582817 -0.000976955 0.326598632 1.000000000
0.101659397 0.074685722 0.096194052 -0.000102216 -0.755420547 -0.000639526 0.326598632 1.000000000
0.099227680 0.072465811 0.100199969 0.000002536 -0.755568627 -0.001030080 0.326598632 1.000000000
0.100792743 0.067588000 0.102760375 0.000152729 -0.758958060 -0.000090153 0.326598632 1.000000000
0.098101929 0.068167682 0.095903426 -0.003641393 -0.759083465 -0.000533486 0.326598632 1.000000000
0.097736395 0.067958744 0.095100848 -0.002426577 -0.763392007 -0.003571867 0.326598632 1.000000000
0.094205726 0.068608986 0.105754641 -0.001017611 -0.760404047 0.002629056 0.326598632 1.000000000
0.098155585 0.073662120 0.103160597 -0.000395415 -0.758655835 0.000316361 0.326598632 0.999894125
0.094576531 0.072406073 0.099575711 -0.000321115 -0.753873266 -0.001134700 0.326598632 1.000000000
0.097130698 0.074300634 0.105389831 -0.000082943 -0.757645963 0.000135741 0.326598632 0.999941578
0.100012535 0.074674377 0.094183382 0.000060406 -0.758565926 -0.000437591 0.326598632 0.999744166
0.101390444 0.072679758 0.100472605 -0.000159334 -0.754963194 0.000390957 0.326598632 0.999717987
0.104406719 0.074761214 0.105326832 0.000561387 -0.757928361 0.000391053 0.326598632 1.000000000
0.102126094 0.073615942 0.101637752 -0.001061412 -0.755845127 0.000759505 0.326598632 1.000000000
0.103734382 0.068234619 0.100880480 -0.000124095 -0.759374823 0.000193745 0.326598632 1.000000000
0.103845144 0.072215425 0.103847814 0.000119146 -0.757549464 0.000178415 0.326598632 1.000000000
0.097287598 0.068861079 0.101817241 -0.000498380 -0.757661745 -0.000361706 0.326598632 0.999972190
0.094467232 0.070225523 0.096574798 -0.000674811 -0.755722419 0.000793745 0.326598632 1.000000000
0.101868800 0.069899206 0.101419268 0.001161542 -0.758620860 0.000386770 0.326598632 1.000000000
0.098087248 0.072660674 0.098624792 -0.000417205 -0.756268992 0.000031323 0.326598632 0.999912202
0.102315278 0.071175732 0.097127959 0.000425837 -0.757428467 -0.001712920 0.326598632 1.000000000
0.094469908 0.074700530 0.098179947 -0.000452083 -0.757828674 -0.000232429 0.326598632 1.000000000
0.100575648 0.075062519 0.099015263 0.000080046 -0.753636523 -0.000188879 0.326598632 1.000000000
0.100911288 0.071868817 0.099080700 0.000336319 -0.756630144 -0.001474361 0.326598632 1.000000000
0.097000528 0.068341433 0.102779653 0.000057487 -0.758873952 -0.000169587 0.326598632 1.000000000
0.100742065 0.074259159 0.100966812 -0.000808796 -0.754577863 0.000483659 0.326598632 1.000000000
0.102879098 0.072760103 0.096862920 0.000217516 -0.755568187 -0.000719979 0.326598632 0.999801975
0.100411946 0.070341890 0.096857808 0.000839905 -0.757792150 -0.001652081 0.326598632 1.000000000
0.097571272 0.070437960 0.099958767 -0.001217512 -0.757107663 -0.000287687 0.326598632 1.000000000
0.105502760 0.067747538 0.095199761 0.000536138 -0.759710229 -0.000054905 0.326598632 1.000000000
0.105482074 0.070159626 0.104165962 0.000804936 -0.757587465 0.000231136 0.326598632 1.000000000
0.099915927 0.071180753 0.102121622 -0.000299468 -0.755207188 0.000741785 0.326598632 0.999650283
0.101228984 0.068054181 0.094999533 0.000030372 -0.757038918 -0.000271002 0.326598632 1.000000000
0.105354791 0.069022575 0.100644920 0.000852078 -0.756720107 0.000792702 0.326598632 1.000000000
0.105171391 0.068228111 0.103375414 0.000381002 -0.758419638 -0.000234974 0.326598632 1.000000000
0.094670341 0.075289288 0.105691446 -0.000682094 -0.752132053 0.003158272 0.326598632 1.000000000
0.102469771 0.071688183 0.102844532 -0.000401781 -0.757439416 0.000296815 0.326598632 0.999932682
0.104043649 0.072825101 0.105624084 0.000187227 -0.756890106 0.000674187 0.326598632 1.000000000
0.099112665 0.074028825 0.104402596 -0.001627711 -0.756310171 0.000512185 0.326598632 1.000000000
0.104702972 0.070494509 0.096671064 0.000468507 -0.756994017 0.000347207 0.326598632 0.999951313
0.096798426 0.071428125 0.095759170 -0.000770723 -0.756176532 -0.000631365 0.326598632 0.999992533
0.104565181 0.074225915 0.100975540 0.003251832 -0.755821998 -0.002223749 0.326598632 1.000000000
0.101102658 0.074582803 0.096840415 -0.000110616 -0.756551683 -0.000004141 0.326598632 1.000000000
0.099780071 0.072987534 0.098202493 -0.000291830 -0.754545559 -0.000506573 0.326598632 1.000000000
0.096984355 0.072960593 0.098535645 0.000077369 -0.757279405 -0.000165074 0.326598632 0.999681890
0.097043431 0.070796445 0.097963233 -0.001112172 -0.757378797 0.000275992 0.326598632 1.000000000
0.102891656 0.071892940 0.098861286 -0.000018781 -0.757253051 -0.000310149 0.326598632 1.000000000
0.102930438 0.073903704 0.103206922 -0.000108248 -0.755763504 0.002626067 0.326598632 1.000000000
0.098802697 0.069221094 0.102172817 -0.000635339 -0.757219707 0.001046867 0.326598632 1.000000000
0.100340211 0.067981932 0.099733501 -0.001694360 -0.762364547 0.003012971 0.326598632 1.000000000
0.105735507 0.073736927 0.099236129 0.001416525 -0.758092769 -0.000042220 0.326598632 0.999963661
0.094519809 0.069900058 0.100671964 -0.001514733 -0.759884553 0.000174808 0.326598632 1.000000000
0.097035811 0.074673204 0.105095774 -0.000132894 -0.757007972 0.000085864 0.326598632 1.000000000
0.095993595 0.067921027 0.102344395 -0.001061571 -0.762035998 -0.000837961 0.326598632 1.000000000
0.105950417 0.069676644 0.096601629 0.001045309 -0.757910534 -0.000229689 0.326598632 1.000000000
0.102845194 0.070394301 0.102363574 -0.000240344 -0.757652576 0.000791431 0.326598632 1.000000000
0.094694296 0.074990776 0.104982707 -0.000460127 -0.757462377 -0.001889320 0.326598632 1.000000000
0.098027913 0.068173036 0.098734358 -0.000067737 -0.759992328 0.000355550 0.326598632 1.000000000
0.098659134 0.072496049 0.096036088 -0.000133902 -0.756104066 0.000014023 0.326598632 1.000000000
0.098324908 0.069447656 0.096753416 0.002344886 -0.755699170 0.004148791 0.326598632 1.000000000
0.094387647 0.070946445 0.097119015 -0.000834379 -0.756542308 0.000689148 0.326598632 1.000000000
0.101234392 0.070609769 0.097356852 0.001405086 -0.758035089 -0.000793157 0.326598632 1.000000000
0.094914566 0.068383702 0.097251985 -0.000978828 -0.760287686 0.001208939 0.326598632 1.000000000
0.100974218 0.070654511 0.105286844 0.000673923 -0.756124844 0.000750451 0.326598632 1.000000000
0.104519945 0.067982691 0.105030350 -0.000065054 -0.757473082 0.000285092 0.326598632 1.000000000
0.098934741 0.068638995 0.100618977 -0.001578529 -0.759504759 0.000253286 0.326598632 0.999654881
0.105823973 0.071163117 0.103330761 0.000997041 -0.757810492 -0.000465887 0.326598632 1.000000000
0.098715818 0.073317921 0.098520830 -0.000753094 -0.755766661 -0.000169364 0.326598632 1.000000000
0.094762150 0.071874505 0.103949743 0.000140357 -0.755717118 -0.001203685 0.326598632 1.000000000
0.094162993 0.068391500 0.094441477 -0.001647781 -0.757740606 -0.000903552 0.326598632 1.000000000
0.100412213 0.072854274 0.094903949 -0.000805748 -0.756589383 -0.000097840 0.326598632 1.000000000
0.101021497 0.074627079 0.102999154 -0.000601028 -0.755198599 0.000661325 0.326598632 1.000000000
0.098534381 0.073376614 0.102713825 -0.000226450 -0.757872032 0.001076958 0.326598632 1.000000000
0.097016742 0.068959241 0.096893108 -0.001310287 -0.760307102 0.001267453 0.326598632 0.999653523
0.104538618 0.068978703 0.097296945 0.000147282 -0.757313896 0.000139250 0.326598632 1.000000000
0.097224288 0.067693465 0.103084239 0.000105908 -0.760728310 0.000249430 0.326598632 1.000000000
0.099714520 0.071305595 0.094265785 -0.000369203 -0.758339147 -0.001135098 0.326598632 1.000000000
0.103795735 0.069782868 0.103976835 -0.001188541 -0.757433444 0.000744730 0.326598632 1.000000000
0.103501618 0.068028029 0.105615946 -0.000095523 -0.757262818 0.000394207 0.326598632 1.000000000
0.099046321 0.071161500 0.101079802 -0.000100119 -0.755820615 0.000729595 0.326598632 1.000000000
0.103660528 0.072435710 0.103415902 0.000054510 -0.757548041 -0.000103770 0.326598632 1.000000000
0.105765856 0.072259916 0.104838384 0.000668693 -0.756241272 0.000855564 0.326598632 1.000000000
0.100657719 0.072413850 0.101297499 0.000149695 -0.755889682 0.000757120 0.326598632 0.999968883
0.100569638 0.073132093 0.095091950 0.000394460 -0.754516183 0.001089645 0.326598632 1.000000000
0.097575672 0.074605496 0.099411043 0.000164844 -0.755219351 -0.000103032 0.326598632 1.000000000
0.103558081 0.072902565 0.100283582 0.000620179 -0.757091320 -0.000026254 0.326598632 1.000000000
0.103226886 0.074171895 0.099512035 -0.000131625 -0.753441921 -0.000264551 0.326598632 1.000000000
0.101449269 0.067799694 0.094794758 -0.000210200 -0.758575558 -0.000383915 0.326598632 1.000000000
0.100956309 0.069105877 0.098168977 0.000940826 -0.758512155 -0.000459222 0.326598632 0.999743078
0.099521628 0.071732586 0.098098884 -0.000115088 -0.756873094 -0.000143349 0.326598632 1.000000000
0.102372224 0.070635700 0.101017291 0.000812905 -0.758018496 0.000222388 0.326598632 1.000000000
0.098939875 0.073005997 0.096160721 -0.000582291 -0.756550247 -0.000162762 0.326598632 0.999777726
0.105677844 0.071555730 0.104492217 0.000901033 -0.757128421 0.000549749 0.326598632 1.000000000
0.103861486 0.069224279 0.101223208 0.000089554 -0.758136076 -0.000116771 0.326598632 1.000000000
0.094381220 0.070214779 0.098141515 -0.001242913 -0.757606086 0.000011052 0.326598632 0.999693062
0.098271383 0.071709584 0.100584535 -0.000512118 -0.756045051 0.000083919 0.326598632 1.000000000
0.097962068 0.068462491 0.104730962 0.000746528 -0.759501268 0.000545203 0.326598632 1.000000000
0.099773938 0.068170357 0.097860137 0.001275179 -0.760073412 0.002559034 0.326598632 0.999270318
0.095884068 0.071527883 0.102253502 0.000726350 -0.755973397 -0.000051194 0.326598632 0.999965200
0.104419522 0.067454345 0.098527545 -0.000483764 -0.757829272 -0.000172872 0.326598632 1.000000000
0.105835342 0.072212980 0.095014162 0.000981033 -0.755680845 -0.000096326 0.326598632 1.000000000
0.096833257 0.074827077 0.100439022 -0.000074219 -0.755218152 -0.000024825 0.326598632 1.000000000
0.102645815 0.071683587 0.103119575 -0.000648052 -0.757996037 0.000203913 0.326598632 1.000000000
0.095595629 0.068614128 0.094747384 -0.002782757 -0.759597727 -0.001806668 0.326598632 1.000000000
0.102995404 0.074189742 0.102246406 -0.001509361 -0.755514232 0.001415254 0.326598632 1.000000000
0.098249703 0.074370889 0.094365235 -0.000013257 -0.757624586 -0.000599937 0.326598632 1.000000000
0.102848676 0.068272833 0.098766337 -0.000260195 -0.757014591 0.000475453 0.326598632 1.000000000
0.104088670 0.071946344 0.096187416 0.000173026 -0.755421064 0.000204415 0.326598632 1.000000000
0.096798469 0.071717147 0.095070281 -0.000275192 -0.755281397 -0.000211683 0.326598632 1.000000000
0.098260818 0.071225574 0.098115713 -0.000303605 -0.756048592 0.001115699 0.326598632 1.000000000
0.101010611 0.071269985 0.101786496 0.000583963 -0.754966788 0.001793487 0.326598632 0.999687792
0.101038531 0.071895660 0.102842259 0.000069372 -0.755978480 0.000450890 0.326598632 0.999909949
0.098048860 0.070463958 0.100773735 -0.001427576 -0.757190529 0.000658622 0.326598632 1.000000000
0.096931985 0.072293768 0.104795749 -0.000096035 -0.757181448 -0.000054047 0.326598632 1.000000000
0.105204683 0.070075900 0.099978903 0.001040333 -0.758112704 -0.000050207 0.326598632 1.000000000
0.098384689 0.069237237 0.094089481 0.000512664 -0.755438065 -0.002245145 0.326598632 1.000000000
0.095054537 0.074241318 0.099853723 -0.000183215 -0.755662978 0.000057997 0.326598632 1.000000000
0.104107875 0.067878009 0.103670337 0.000171710 -0.759067883 -0.000041401 0.326598632 1.000000000
0.102363918 0.067577613 0.094619372 0.000214952 -0.760924731 -0.000543497 0.326598632 1.000000000
0.100911991 0.074606060 0.105967262 0.000249396 -0.756681637 0.000675175 0.326598632 1.000000000
0.105700911 0.067475165 0.105008726 0.000137508 -0.758630535 -0.000033885 0.326598632 1.000000000
0.103851287 0.073217718 0.099888833 0.001662153 -0.756964309 -0.001397499 0.326598632 1.000000000
0.099719118 0.071714145 0.102621968 -0.000417967 -0.756099433 0.000708310 0.326598632 0.999911783
0.105616237 0.069073907 0.104063012 0.000623058 -0.757489945 -0.000001374 0.326598632 1.000000000
0.102834961 0.069029296 0.102531476 -0.000076262 -0.758836053 0.000242035 0.326598632 1.000000000
0.103212898 0.073092862 0.100358701 -0.001183255 -0.755369042 0.000644702 0.326598632 1.000000000
0.105184422 0.071483819 0.095047519 0.000780182 -0.754952391 0.000140228 0.326598632 1.000000000
0.098430462 0.072185318 0.097847806 -0.000684044 -0.755502546 0.000223227 0.326598632 0.999876640
0.100586810 0.071822333 0.099450528 -0.000439494 -0.756775157 -0.001440587 0.326598632 1.000000000
0.095054483 0.072910438 0.096420790 -0.000288309 -0.757214818 0.000204423 0.326598632 1.000000000
0.095400493 0.067453086 0.095665403 -0.000060352 -0.762383234 -0.001662268 0.326598632 1.000000000
0.103531832 0.072282208 0.099677318 0.000695893 -0.759600747 -0.001976332 0.326598632 1.000000000
0.102951709 0.074241055 0.095280173 -0.000391067 -0.754368207 -0.000401285 0.326598632 1.000000000
0.105891206 0.074897685 0.098902119 0.000339930 -0.756770839 0.000012949 0.326598632 1.000000000
0.105117592 0.070467965 0.096460132 0.000542313 -0.756926253 0.000359433 0.326598632 1.000000000
0.103378270 0.067817406 0.102658928 0.000381804 -0.759933637 -0.000137473 0.326598632 1.000000000
0.103594659 0.073438461 0.103935446 0.000411603 -0.755456153 0.000628090 0.326598632 1.000000000
0.096828237 0.068924650 0.103901908 0.000201632 -0.758355372 0.000414899 0.326598632 1.000000000
0.097794294 0.074697100 0.101605143 0.000092200 -0.756012469 0.000299796 0.326598632 1.000000000
0.099423243 0.072898708 0.101059616 0.000333180 -0.755000580 -0.000447424 0.326598632 1.000000000
0.101489231 0.074631650 0.102565665 -0.000313543 -0.755798714 0.000500921 0.326598632 1.000000000
0.100930020 0.070943463 0.100477241 0.001682297 -0.754671392 -0.000264038 0.326598632 1.000000000
0.100382335 0.070565115 0.098264041 0.000442239 -0.758572925 -0.001397426 0.326598632 0.999906314
0.100514138 0.069266259 0.094799374 0.000378719 -0.755147950 -0.000354431 0.326598632 0.999840844
0.102766973 0.070095262 0.099177791 0.000495136 -0.759232114 -0.001045828 0.326598632 0.999683048
0.104543836 0.068767504 0.102324612 0.000766889 -0.757990973 0.000193566 0.326598632 1.000000000
0.100877617 0.073366718 0.099944877 -0.000499518 -0.754724354 0.000379896 0.326598632 1.000000000
0.102483723 0.073452863 0.105972660 0.000026902 -0.757140642 0.000549322 0.326598632 1.000000000
0.096454235 0.068578383 0.103343366 -0.000036538 -0.758946232 0.000083804 0.326598632 1.000000000
0.103055418 0.071385287 0.102568998 -0.000455300 -0.757950207 0.000579858 0.326598632 1.000000000
0.098545754 0.071838351 0.095234671 -0.000163467 -0.757537163 -0.000740533 0.326598632 1.000000000
0.100027220 0.072378894 0.099483687 -0.000025971 -0.756260455 -0.000242783 0.326598632 0.999948652
0.098907376 0.071437989 0.100478201 0.000052899 -0.756178108 -0.000339665 0.326598632 1.000000000
0.101181421 0.067644247 0.103262715 0.000151023 -0.757600433 0.000192636 0.326598632 1.000000000
0.101188376 0.073276914 0.100786500 -0.000538866 -0.755152381 0.000666545 0.326598632 1.000000000
0.098110193 0.075220001 0.103921707 -0.000531548 -0.755325036 0.000083207 0.326598632 1.000000000
0.097454419 0.070936157 0.096728372 -0.001318674 -0.755890459 -0.000471954 0.326598632 1.000000000
0.095669263 0.074842804 0.101379544 -0.000300764 -0.754929242 0.000132445 0.326598632 1.000000000
0.102713109 0.069594990 0.095209406 -0.000432516 -0.757319425 -0.000352864 0.326598632 1.000000000
0.105025180 0.068364263 0.101115859 0.000433453 -0.757478602 0.000722893 0.326598632 1.000000000
0.101816420 0.067731204 0.103481131 0.000003035 -0.757251205 0.000222211 0.326598632 1.000000000
0.094826256 0.070542162 0.103255648 -0.001673919 -0.756241447 0.000432541 0.326598632 1.000000000
0.104085095 0.068380289 0.094927265 -0.000307804 -0.759049087 -0.001114521 0.326598632 1.000000000
0.096830676 0.068528714 0.104928656 -0.000079192 -0.759022420 0.001166870 0.326598632 1.000000000
0.104049828 0.069036906 0.095986509 -0.000169142 -0.759098570 0.000488187 0.326598632 1.000000000
0.096728459 0.070037841 0.097985871 -0.000195285 -0.757945358 -0.000140166 0.326598632 1.000000000
0.102931112 0.070581012 0.101294887 0.000076361 -0.757945896 0.000275196 0.326598632 1.000000000
0.101244831 0.073848593 0.096467095 0.000365983 -0.757354267 0.000216126 0.326598632 1.000000000
0.104362214 0.070863707 0.095371217 -0.000048810 -0.755541903 0.000036032 0.326598632 1.000000000
0.099769895 0.071272955 0.105075692 -0.000330115 -0.756224465 0.000242748 0.326598632 0.999977118
0.094393726 0.072244018 0.105022152 -0.001347631 -0.756061991 0.001925462 0.326598632 1.000000000
0.100931790 0.069532897 0.104952936 0.001497509 -0.756288458 -0.000229481 0.326598632 0.999943885
0.097736426 0.067815312 0.095985962 -0.005406618 -0.765052016 -0.000928247 0.326598632 1.000000000
0.096641286 0.069767515 0.103366107 0.000620553 -0.756831858 -0.000007855 0.326598632 1.000000000
0.105706551 0.071669166 0.096552219 0.000214647 -0.755778438 0.000175088 0.326598632 1.000000000
0.104328756 0.072004875 0.099506950 0.002280118 -0.758288899 -0.002458969 0.326598632 1.000000000
0.097594638 0.069022128 0.100420661 -0.001222805 -0.758726846 -0.000386366 0.326598632 1.000000000
0.099121709 0.070724628 0.097719464 0.000802461 -0.757091880 0.000838951 0.326598632 1.000000000
0.099618292 0.070341969 0.103597770 -0.001454470 -0.757193319 0.000933098 0.326598632 1.000000000
0.104038893 0.070568851 0.101500122 -0.000027079 -0.756821678 0.000950683 0.326598632 1.000000000
0.102569023 0.069898211 0.101049247 0.000431744 -0.759136679 -0.000494685 0.326598632 1.000000000
0.099772847 0.071822696 0.100331523 -0.000208195 -0.755664873 -0.000800556 0.326598632 0.999856529
0.095235745 0.073670253 0.099964270 -0.000009212 -0.755007321 0.000509889 0.326598632 0.999595537
0.103038861 0.068151342 0.098011843 -0.000272176 -0.756136049 -0.000649500 0.326598632 1.000000000
0.100318725 0.074726683 0.097267779 -0.000327903 -0.755967616 0.000097472 0.326598632 1.000000000
0.104077575 0.075379534 0.103609020 0.000430930 -0.753594107 0.000361154 0.326598632 1.000000000
0.100620765 0.070811369 0.104403840 0.000144352 -0.755913858 0.000078734 0.326598632 1.000000000
0.100066131 0.069115807 0.097045871 0.001078909 -0.757344165 0.000735119 0.326598632 0.999531763
0.100833139 0.070259940 0.101141327 0.000162706 -0.758684768 0.001540386 0.326598632 1.000000000
0.102649634 0.072000149 0.104649555 -0.000006846 -0.757898883 0.000242711 0.326598632 1.000000000
0.101238252 0.075457958 0.103663947 -0.000229595 -0.753768518 0.000259871 0.326598632 0.999997548
0.105333104 0.075248947 0.103682208 0.000721155 -0.755539770 0.000197405 0.326598632 0.999894306
0.097888047 0.070797919 0.095692633 0.000558986 -0.756578982 -0.000850765 0.326598632 1.000000000
0.102830913 0.072613851 0.095042981 0.000110558 -0.753899379 0.001023770 0.326598632 0.999810240
0.104517444 0.068529065 0.104177736 -0.000021834 -0.757089452 0.000242850 0.326598632 1.000000000
0.104927998 0.073178212 0.101715220 0.001957565 -0.759148108 0.000213188 0.326598632 0.999757482
0.103901377 0.070233828 0.101497354 0.000029839 -0.756919286 0.000529222 0.326598632 1.000000000
0.103967747 0.067821291 0.098356496 -0.000399087 -0.756317723 -0.000351896 0.326598632 1.000000000
0.098352997 0.073737671 0.098142248 -0.000520780 -0.756460882 -0.000215607 0.326598632 0.999966614
0.105694995 0.069302265 0.104332973 0.000812633 -0.757736898 0.000123859 0.326598632 1.000000000
0.100789346 0.068460553 0.103357362 0.000048702 -0.757884994 0.000710672 0.326598632 0.999874256
0.096184932 0.071315228 0.105824709 -0.000853018 -0.757813339 0.001068005 0.326598632 1.000000000
0.102900108 0.071645696 0.099816842 -0.000494266 -0.759792472 -0.001470924 0.326598632 1.000000000
0.096616574 0.070766956 0.102386233 0.000584777 -0.756242064 0.000204138 0.326598632 1.000000000
0.095587278 0.070919781 0.101740030 0.000443485 -0.756859454 -0.000305740 0.326598632 1.000000000
0.102198180 0.073077047 0.104806841 0.000437726 -0.755555168 0.000192353 0.326598632 1.000000000
0.103780425 0.071783385 0.103871320 -0.000322931 -0.758361230 0.000457433 0.326598632 1.000000000
0.098862571 0.068083019 0.099976912 -0.002196280 -0.760680773 0.000402069 0.326598632 1.000000000
0.095278915 0.073309029 0.099969732 0.000064359 -0.753712223 0.001018296 0.326598632 0.999549667
0.097198041 0.069655582 0.095680117 -0.000169312 -0.758202487 -0.000317239 0.326598632 1.000000000
0.101597282 0.069552173 0.102786442 0.001110519 -0.757988164 0.000586403 0.326598632 1.000000000
0.104058343 0.072132769 0.099930754 0.002213586 -0.759126208 -0.001968706 0.326598632 1.000000000
0.099064389 0.073714889 0.098852639 -0.000376016 -0.755012049 0.000212482 0.326598632 1.000000000
0.096212490 0.075216957 0.098246394 0.000048939 -0.754970895 -0.000160323 0.326598632 1.000000000
0.094819345 0.073828927 0.095084577 0.000881640 -0.753607911 0.001255009 0.326598632 1.000000000
0.104986259 0.071157542 0.104045058 0.000276183 -0.757111948 0.000273600 0.326598632 1.000000000
0.105391949 0.072543730 0.102658383 0.000772353 -0.755981476 0.000085465 0.326598632 1.000000000
0.095620011 0.075293513 0.098759656 0.000008724 -0.755112257 -0.000326135 0.326598632 1.000000000
0.100477927 0.069819010 0.099804327 -0.001086750 -0.759233881 -0.002829638 0.326598632 1.000000000
0.104157026 0.074393533 0.095944219 0.000235335 -0.753831031 0.000322018 0.326598632 0.999949553
0.101480142 0.068897928 0.105463024 0.000424756 -0.755470921 0.000574299 0.326598632 0.999848745
0.098218438 0.070415253 0.099690711 -0.000230351 -0.756866741 -0.000465933 0.326598632 1.000000000
0.101179456 0.073300319 0.098952848 0.000199535 -0.754239415 -0.000832947 0.326598632 1.000000000
0.094932598 0.068266668 0.099516139 -0.001920172 -0.759800925 -0.000092442 0.326598632 1.000000000
0.094062816 0.075403026 0.094027916 -0.000853401 -0.752942532 -0.000626534 0.326598632 1.000000000
0.103689030 0.070177327 0.095236932 -0.000525281 -0.755854808 -0.000342850 0.326598632 1.000000000
0.102286742 0.073980358 0.105545367 0.000175003 -0.755857634 0.000342050 0.326598632 1.000000000
0.105498509 0.068353542 0.100255637 0.001155185 -0.756523059 0.000204587 0.326598632 1.000000000
0.103108262 0.072771547 0.103100612 -0.000385031 -0.757391883 0.000113260 0.326598632 1.000000000
0.105767128 0.072758705 0.102689229 0.000631766 -0.754927150 0.000004206 0.326598632 1.000000000
0.102318124 0.072833426 0.104840344 0.000451584 -0.755968097 0.000196117 0.326598632 1.000000000
0.094529984 0.073018656 0.094619186 -0.000150749 -0.760360782 -0.000256161 0.326598632 1.000000000
0.100669463 0.075656094 0.101059222 -0.000524405 -0.754240555 0.000117800 0.326598632 1.000000000
0.095446408 0.070162806 0.099678441 0.000014667 -0.756880751 -0.000233763 0.326598632 0.999127848
0.095383176 0.069201066 0.102771900 -0.000600545 -0.756204172 -0.001650477 0.326598632 1.000000000
0.102940719 0.074023426 0.099060759 -0.000247607 -0.754717027 -0.000854913 0.326598632 1.000000000
0.100269424 0.071301137 0.094658422 0.000165101 -0.757647590 -0.000725867 0.326598632 0.999959811
0.098375998 0.072861663 0.101734648 -0.000981612 -0.755526927 0.000619973 0.326598632 1.000000000
0.104620570 0.071508418 0.100728232 0.000957040 -0.756829853 -0.000049531 0.326598632 1.000000000
0.098853720 0.071188344 0.100363032 -0.000061160 -0.756261128 -0.000344468 0.326598632 1.000000000
0.100460449 0.074092789 0.100869325 -0.000709220 -0.754530730 0.000371991 0.326598632 1.000000000
0.100241910 0.073563565 0.101940315 -0.000290040 -0.755425240 0.001214358 0.326598632 1.000000000
0.099010016 0.074674169 0.099121803 -0.000223957 -0.754778279 0.000004988 0.326598632 0.999994620
0.094002753 0.075583993 0.099543259 -0.000320162 -0.753898894 -0.000244579 0.326598632 1.000000000
0.105191248 0.070731872 0.096225792 0.000572417 -0.756662272 0.000400077 0.326598632 1.000000000
0.094631315 0.067735175 0.094839676 -0.001930328 -0.759009555 -0.001725686 0.326598632 1.000000000
0.099758013 0.067960165 0.095061967 0.002818843 -0.759843030 -0.003035313 0.326598632 1.000000000
0.098779104 0.069833412 0.100969332 -0.001115990 -0.757961971 0.000496873 0.326598632 1.000000000
0.100270321 0.070351241 0.095100407 0.000304911 -0.756186943 0.000016135 0.326598632 0.999944504
0.099607725 0.067685907 0.102787347 -0.000011636 -0.759143368 0.000223513 0.326598632 1.000000000
0.102586901 0.074483556 0.097564026 0.000614764 -0.754844303 -0.000211024 0.326598632 1.000000000
0.104924281 0.069878116 0.101069472 0.000434942 -0.756619436 0.000624284 0.326598632 1.000000000
0.098700074 0.068535715 0.094540719 0.001281973 -0.757072223 -0.002118104 0.326598632 1.000000000
0.103575816 0.075312759 0.095493278 -0.000389061 -0.753348098 0.000202524 0.326598632 1.000000000
0.105787996 0.072369352 0.097107776 0.000131655 -0.755090663 -0.000086155 0.326598632 0.999961119
0.104844930 0.072466940 0.104610536 0.000568662 -0.756002264 0.000380764 0.326598632 1.000000000
0.094779805 0.073607414 0.105870584 -0.000355282 -0.755919206 0.001786636 0.326598632 1.000000000
0.096766790 0.074362950 0.098818863 -0.000048259 -0.755773092 -0.000186251 0.326598632 1.000000000
0.094562304 0.068622207 0.103968131 -0.004151527 -0.760622882 0.000621533 0.326598632 1.000000000
0.105487366 0.067953573 0.098609362 0.000654299 -0.757947685 0.000291189 0.326598632 1.000000000
0.101557372 0.074066984 0.103914516 0.000112226 -0.754746082 0.000173255 0.326598632 1.000000000
0.101167429 0.071806439 0.096595682 0.000380604 -0.755627279 -0.000466789 0.326598632 1.000000000
0.100182050 0.069741287 0.100300601 -0.003058615 -0.759626508 -0.000200383 0.326598632 1.000000000
0.104769392 0.075631725 0.099894123 0.000763793 -0.753979604 -0.000295573 0.326598632 1.000000000
0.102973990 0.072643583 0.099559920 -0.001209424 -0.757763624 -0.001509065 0.326598632 1.000000000
0.104321583 0.074820775 0.094418223 0.000057275 -0.753042874 -0.000766178 0.326598632 1.000000000
0.097275270 0.070789329 0.099489134 -0.000678080 -0.757506516 -0.000273502 0.326598632 0.999644686
0.104226290 0.068014881 0.099720335 -0.000193696 -0.757851542 0.000270530 0.326598632 1.000000000
0.105179446 0.070292728 0.094424495 0.001326628 -0.756494680 -0.001763294 0.326598632 1.000000000
0.097031928 0.069911059 0.102822599 0.000250943 -0.756920180 0.000259838 0.326598632 1.000000000
0.094585555 0.073225856 0.094060083 0.000513740 -0.757831681 -0.003078483 0.326598632 1.000000000
0.095313500 0.075358074 0.100391112 -0.000207604 -0.754577394 -0.000188467 0.326598632 1.000000000
0.094738171 0.075592969 0.104733289 -0.000233557 -0.750849765 -0.003058536 0.326598632 1.000000000
0.104878357 0.071788815 0.104595146 0.000409413 -0.756887726 0.000610069 0.326598632 1.000000000
0.100525230 0.072957439 0.100855991 -0.000020255 -0.755276709 0.000322695 0.326598632 1.000000000
0.100255138 0.073531931 0.104373866 0.000697512 -0.755996441 -0.000325180 0.326598632 1.000000000
0.095887934 0.069622446 0.104418565 -0.000842659 -0.756852059 0.001875609 0.326598632 1.000000000
0.096863981 0.070331850 0.095924873 -0.001024582 -0.756725232 0.000171237 0.326598632 1.000000000
0.102387895 0.068620519 0.105161106 0.000056068 -0.754752932 0.000076794 0.326598632 1.000000000
0.105535801 0.074827405 0.096270667 0.000071356 -0.753053776 0.000038194 0.326598632 1.000000000
0.094061649 0.074806451 0.099585659 -0.000313041 -0.754669929 0.000166697 0.326598632 1.000000000
0.104904424 0.069602308 0.103839388 0.000048843 -0.756516610 0.000095067 0.326598632 1.000000000
0.103079805 0.072223347 0.094012947 0.001105085 -0.755128314 -0.002775305 0.326598632 1.000000000
0.095009043 0.069318001 0.097104326 -0.000684785 -0.757864838 0.000299855 0.326598632 1.000000000
0.095390150 0.072252402 0.097917115 0.000002967 -0.756052376 -0.000665437 0.326598632 1.000000000
0.103824060 0.067845994 0.098520307 -0.000396459 -0.756264252 -0.000207776 0.326598632 1.000000000
0.094220806 0.070040650 0.095541167 -0.001770777 -0.754259090 -0.001273449 0.326598632 1.000000000
0.098705812 0.074494645 0.099186900 -0.000039939 -0.755035343 0.000036555 0.326598632 1.000000000
0.103465826 0.073803491 0.096153987 0.000452797 -0.754213718 0.000081462 0.326598632 1.000000000
0.105367623 0.073941048 0.096085065 0.000200200 -0.753459260 0.000121474 0.326598632 0.999974644
0.102502881 0.073941574 0.095996501 0.000045072 -0.754992426 -0.000178602 0.326598632 1.000000000
0.094895683 0.068235611 0.099683574 -0.002251919 -0.760074672 0.002115976 0.326598632 1.000000000
0.102112648 0.075695378 0.104228990 0.000049526 -0.753319293 0.000070291 0.326598632 0.999989016
0.101132755 0.072954218 0.099351341 0.000143480 -0.754858950 -0.000338956 0.326598632 1.000000000
0.103858133 0.068298625 0.098603336 -0.000144656 -0.755596266 -0.000105557 0.326598632 1.000000000
0.097030095 0.074323644 0.098461969 -0.000028276 -0.756161341 -0.000116922 0.326598632 1.000000000
0.099622901 0.069045160 0.094012074 0.001303905 -0.755376970 -0.001047400 0.326598632 1.000000000
0.104250460 0.068590938 0.105331755 -0.000242906 -0.756289122 0.000338702 0.326598632 1.000000000
0.097580535 0.074381012 0.100324295 0.000112962 -0.755149636 0.000029557 0.326598632 1.000000000
0.096760559 0.073955920 0.104079433 -0.000302558 -0.756050505 0.000386155 0.326598632 1.000000000
0.105558909 0.074718747 0.095576016 0.000407260 -0.752987569 -0.000023734 0.326598632 1.000000000
0.104914468 0.073624280 0.094375498 0.001036454 -0.754015378 -0.000772178 0.326598632 1.000000000
0.103121110 0.075490369 0.104288343 -0.000114342 -0.753198799 0.000153111 0.326598632 1.000000000
0.097848896 0.070268805 0.099307550 -0.000179969 -0.756948746 -0.000149080 0.326598632 1.000000000
0.096404218 0.073740461 0.102693149 -0.000378361 -0.755079328 0.000245358 0.326598632 1.000000000
0.100753184 0.073493061 0.104417477 0.000325941 -0.755023767 -0.000250061 0.326598632 1.000000000
0.095910859 0.072118887 0.099658080 -0.000466954 -0.758635329 -0.001791476 0.326598632 1.000000000
0.095843865 0.068502480 0.096444650 -0.000206906 -0.757454462 0.000325324 0.326598632 1.000000000
0.094213787 0.072015540 0.099443525 -0.003456146 -0.761074235 -0.004913751 0.326598632 1.000000000
0.104942043 0.070126732 0.103561539 0.000076953 -0.756376501 -0.000098564 0.326598632 1.000000000
0.099545197 0.069257337 0.105610423 0.000273971 -0.756115451 0.001616867 0.326598632 1.000000000
0.101287862 0.072560287 0.094014215 0.001041321 -0.756164539 -0.003352853 0.326598632 1.000000000
0.096706408 0.072241322 0.096970548 -0.000143713 -0.754187065 0.000353090 0.326598632 1.000000000
0.097911003 0.072986014 0.095929867 -0.000299855 -0.754610722 -0.000204569 0.326598632 1.000000000
0.105812991 0.071239293 0.101083525 0.002888991 -0.756465157 0.001414622 0.326598632 1.000000000
0.102165575 0.071490138 0.095794792 0.000276658 -0.756014478 -0.000467505 0.326598632 1.000000000
0.102662748 0.075571979 0.098746626 0.000341982 -0.752838071 0.000272615 0.326598632 1.000000000
0.105432486 0.073830237 0.101884067 0.004389875 -0.754802884 0.001635893 0.326598632 1.000000000
0.102989937 0.073567924 0.104893981 0.000022930 -0.755187806 0.000462682 0.326598632 1.000000000
0.100850928 0.068596096 0.095751110 0.000374161 -0.754568675 0.000421464 0.326598632 1.000000000
0.096524116 0.071632784 0.094220118 -0.000310623 -0.754493403 -0.001337180 0.326598632 1.000000000
0.105295023 0.073979779 0.098151941 0.000830843 -0.756518167 -0.001223678 0.326598632 1.000000000
0.104590465 0.072048002 0.094868983 0.000386235 -0.754160800 -0.000057282 0.326598632 1.000000000
0.098293578 0.074369437 0.094990120 -0.000144634 -0.756017769 0.000061185 0.326598632 0.999930926
0.096410320 0.075593734 0.097865124 0.000039721 -0.753959895 -0.000047512 0.326598632 1.000000000
0.094494150 0.074345762 0.102318341 -0.000277503 -0.753305933 0.000056890 0.326598632 0.999884707
0.095490627 0.075386536 0.102044658 -0.000072133 -0.753620547 0.000098646 0.326598632 1.000000000
0.101399286 0.072531759 0.104754647 -0.000104761 -0.755416922 -0.000078019 0.326598632 1.000000000
0.105222641 0.070164015 0.101355586 0.000754009 -0.756329700 0.000983008 0.326598632 1.000000000
0.103401065 0.072775696 0.105368338 -0.000013346 -0.756620391 0.000473764 0.326598632 1.000000000
0.101929911 0.071648748 0.101347332 0.000608204 -0.754789182 0.001013140 0.326598632 0.999837033
0.103405915 0.072552643 0.100636344 -0.000180092 -0.757704951 0.000701114 0.326598632 1.000000000
0.095968669 0.068099183 0.099771257 0.002147356 -0.757480728 0.001386342 0.326598632 1.000000000
0.101119253 0.073572493 0.099263200 -0.000221298 -0.754246367 -0.000202788 0.326598632 1.000000000
0.101389016 0.071607576 0.101803819 0.000483647 -0.755386401 0.001363890 0.326598632 0.999691215
0.102931552 0.071534911 0.097947894 0.001190539 -0.755954957 -0.001135376 0.326598632 1.000000000
0.094523537 0.071242585 0.104462456 -0.001536123 -0.757043238 0.001190605 0.326598632 1.000000000
0.101839161 0.067940475 0.095940273 0.000139002 -0.755705052 0.000807933 0.326598632 1.000000000
0.099919450 0.072113248 0.097987660 0.000611848 -0.756627282 -0.000580248 0.326598632 1.000000000
0.096646669 0.070999653 0.094978097 -0.000270169 -0.755553682 -0.000812681 0.326598632 1.000000000
0.104085153 0.069402143 0.099020573 -0.000719976 -0.755811553 -0.000671576 0.326598632 1.000000000
0.098990758 0.075460379 0.096090338 -0.000346359 -0.753470773 0.000077630 0.326598632 1.000000000
0.102824184 0.072916767 0.104154957 -0.000128338 -0.755677535 0.000091467 0.326598632 1.000000000
0.100519584 0.071925486 0.103212722 -0.000147946 -0.755154532 0.000237058 0.326598632 0.999949207
0.094352670 0.072591647 0.100168524 -0.000422282 -0.752134008 0.003826326 0.326598632 1.000000000
0.101172810 0.072736354 0.098746045 0.000848183 -0.754369696 -0.000915374 0.326598632 0.999830714
0.105905645 0.073127125 0.103515475 0.000302573 -0.752996377 0.000012066 0.326598632 1.000000000
0.098606245 0.070759789 0.097406384 0.000529236 -0.756126988 0.000862076 0.326598632 1.000000000
0.096829499 0.074574774 0.099589717 -0.000044089 -0.754737694 -0.000243805 0.326598632 1.000000000
0.101222324 0.071129178 0.103312051 0.000396673 -0.755358518 0.000324851 0.326598632 0.999888074
0.100151272 0.070869609 0.101590707 -0.000736013 -0.754533330 0.001470555 0.326598632 0.999956643
0.099245828 0.068439580 0.098956255 -0.001046402 -0.756549305 -0.000790498 0.326598632 1.000000000
0.101115093 0.071127000 0.095168685 0.000484575 -0.754444133 -0.000235152 0.326598632 0.999902533
0.095143117 0.073187888 0.100953091 -0.000138088 -0.753879730 0.000749723 0.326598632 0.999787749
0.098788485 0.070383979 0.101825645 -0.000443086 -0.754705485 0.001108880 0.326598632 1.000000000
0.101060953 0.067959116 0.104295859 0.000011386 -0.754181413 0.000162731 0.326598632 0.999659789
0.096844329 0.071059990 0.101184539 -0.000037904 -0.755255067 -0.000189174 0.326598632 0.999895500
0.099304192 0.074956640 0.096816099 -0.000666997 -0.753584902 0.000073106 0.326598632 1.000000000
0.102032610 0.071477015 0.097970580 -0.000499479 -0.754703993 -0.000616904 0.326598632 1.000000000
0.101054656 0.071482240 0.095749011 0.000293347 -0.754873553 -0.000454069 0.326598632 0.999820708
0.098310776 0.069906940 0.105383029 -0.001556370 -0.755214088 0.000193395 0.326598632 0.999685342
0.098280699 0.072730892 0.098552299 -0.000568507 -0.756087075 -0.000029862 0.326598632 0.999928990
0.102464466 0.074141585 0.100402215 -0.001074388 -0.751585065 0.000480149 0.326598632 0.999945250
0.100697661 0.074800676 0.099356464 -0.000149216 -0.753691669 0.000265557 0.326598632 1.000000000
0.105840478 0.068160184 0.100478901 0.001078162 -0.755457267 0.000207773 0.326598632 1.000000000
0.094620394 0.069735767 0.095475382 0.000215263 -0.755201560 -0.001785545 0.326598632 1.000000000
0.096160164 0.069684367 0.101679980 0.000257797 -0.754951807 -0.000372570 0.326598632 0.999852250
0.101016095 0.068713222 0.095062601 0.000311518 -0.754999626 -0.000440563 0.326598632 1.000000000
0.099758693 0.071065767 0.102258590 -0.000477477 -0.755097247 0.000636481 0.326598632 0.999736683
0.097877587 0.068025513 0.102231567 0.000126196 -0.756835560 -0.000308822 0.326598632 1.000000000
0.097050721 0.072527620 0.105677202 0.000175287 -0.755185402 0.000193212 0.326598632 1.000000000
0.100386574 0.070627627 0.100260460 -0.002438682 -0.757339398 -0.002006807 0.326598632 1.000000000
0.095722288 0.068948289 0.095508819 -0.001469360 -0.756185548 -0.000530366 0.326598632 1.000000000
0.095948684 0.073750101 0.105277840 0.000677527 -0.753937886 0.000016488 0.326598632 0.999461197
0.095874063 0.073733779 0.096260170 0.000645091 -0.752377992 -0.000124233 0.326598632 1.000000000
0.097063678 0.075593973 0.096814738 -0.000003310 -0.752013888 0.000019361 0.326598632 1.000000000
0.098491574 0.075716139 0.101939608 0.000085749 -0.752743293 0.000133497 0.326598632 1.000000000
0.103970474 0.069840111 0.094210044 -0.000345468 -0.753781064 -0.000984365 0.326598632 1.000000000
0.095357369 0.074035132 0.104375238 0.000342891 -0.753484775 -0.000451913 0.326598632 0.999625762
0.101207270 0.075236341 0.103546180 -0.000295962 -0.753875377 0.000370026 0.326598632 1.000000000
0.102003710 0.074501522 0.105290510 0.000346710 -0.754596673 0.000040335 0.326598632 1.000000000
0.095911511 0.070675154 0.100926114 0.000413749 -0.756232998 -0.000728504 0.326598632 1.000000000
0.104397277 0.070431439 0.101259568 0.000088550 -0.756355299 0.000806410 0.326598632 1.000000000
0.095085921 0.073905910 0.105920279 0.000936730 -0.756746545 0.001572301 0.326598632 0.999906520
0.101806209 0.068759767 0.097464227 0.000459878 -0.754069230 -0.000001687 0.326598632 0.999696348
0.099258061 0.075292500 0.103182266 -0.000045228 -0.752656683 -0.000165102 0.326598632 1.000000000
0.097806254 0.074909910 0.104816540 -0.000627566 -0.754798155 0.000212341 0.326598632 1.000000000
0.097562460 0.070892027 0.104426843 0.000192670 -0.755674605 0.000234003 0.326598632 0.999684467
0.101562703 0.070513689 0.101789122 0.001318746 -0.755736910 0.001506386 0.326598632 0.999912711
0.098564969 0.072394222 0.101317971 -0.000448532 -0.755263357 -0.000069662 0.326598632 1.000000000
0.100548254 0.072658623 0.100582012 0.000073832 -0.755072367 0.000098885 0.326598632 1.000000000
