ply
format ascii 1.0
element vertex 487
property float x
property float y
property float z
property float vx
property float vy
property float vz
property float alpha
property float det_fe
end_header
0.095443806 0.069252986 0.099674778 -0.002597145 -0.763207480 -0.002402464 0.326598632 1.000000000
0.095380689 0.068286644 0.102772206 -0.001416270 -0.765027830 0.001281325 0.326598632 1.000000000
0.102941427 0.073113937 0.099060414 0.001782180 -0.760390757 -0.000236072 0.326598632 1.000000000
0.100269385 0.070388227 0.094655180 0.000122360 -0.762657505 -0.003318356 0.326598632 0.999921389
0.098375740 0.071950635 0.101734302 -0.001335983 -0.761837407 -0.000110497 0.326598632 1.000000000
0.104622347 0.070594895 0.100728266 0.002202230 -0.763811818 0.000593691 0.326598632 1.000000000
0.098853453 0.070275542 0.100362804 -0.001120808 -0.765017483 0.000211353 0.326598632 1.000000000
0.100460746 0.073184555 0.100870128 0.000584951 -0.757173857 0.001771216 0.326598632 1.000000000
0.100242110 0.072655394 0.101943582 -0.000249338 -0.757278452 0.003680493 0.326598632 1.000000000
0.099009780 0.073765571 0.099121282 -0.000770715 -0.757522533 -0.001019977 0.326598632 1.000000000
0.094000635 0.074675577 0.099543032 -0.001661494 -0.759025641 -0.000005064 0.326598632 1.000000000
0.105192411 0.069819760 0.096225396 0.001224164 -0.762662791 -0.000980650 0.326598632 1.000000000
0.094629518 0.066816293 0.094837621 -0.001271175 -0.770614724 -0.001680047 0.326598632 1.000000000
0.099759592 0.067040404 0.095058584 0.000972614 -0.770253907 -0.002353227 0.326598632 1.000000000
0.098780034 0.068918420 0.100971329 0.001081001 -0.767269038 0.002096248 0.326598632 1.000000000
0.100270838 0.069438524 0.095098672 0.000243657 -0.763633562 -0.002194444 0.326598632 1.000000000
0.099607309 0.066766578 0.102787566 -0.000178793 -0.771188487 0.000214988 0.326598632 1.000000000
0.102587187 0.073575057 0.097564950 -0.000299109 -0.758970978 0.002122891 0.326598632 1.000000000
0.104925964 0.068964647 0.101070213 0.002673285 -0.764984267 0.000713648 0.326598632 1.000000000
0.098700808 0.067621860 0.094538182 0.000421435 -0.765085217 -0.001964784 0.326598632 1.000000000
0.103576613 0.074406377 0.095492466 0.002653446 -0.754815811 -0.002429851 0.326598632 1.000000000
0.105789834 0.071460128 0.097108016 0.002526040 -0.759367690 -0.000094442 0.326598632 1.000000000
0.104845820 0.071554771 0.104611293 0.001337031 -0.763326703 0.001138487 0.326598632 1.000000000
0.094778108 0.072694634 0.105873838 -0.001152621 -0.763510456 0.002306916 0.326598632 1.000000000
0.096766601 0.073453346 0.098819223 -0.000683992 -0.759391304 0.000008615 0.326598632 1.000000000
0.094558833 0.067705025 0.103968153 -0.002694184 -0.768195449 0.000034325 0.326598632 1.000000000
0.105489024 0.067036426 0.098609426 0.002149801 -0.769229919 -0.000028710 0.326598632 1.000000000
0.101558086 0.073157418 0.103915907 0.000197398 -0.760899745 0.002469296 0.326598632 1.000000000
0.101167366 0.070895995 0.096594256 -0.000000789 -0.763960616 -0.001619836 0.326598632 1.000000000
0.100180592 0.068824930 0.100301117 -0.001235084 -0.767614077 0.000972217 0.326598632 1.000000000
0.104770653 0.074722810 0.099893928 0.001713007 -0.757907371 0.000171743 0.326598632 1.000000000
0.102975208 0.071732318 0.099559406 0.001328381 -0.762717386 -0.000967620 0.326598632 1.000000000
0.104322531 0.073913344 0.094416755 0.001643288 -0.757930567 -0.001628576 0.326598632 1.000000000
0.097273748 0.069877955 0.099489191 -0.001666330 -0.763226482 -0.000346388 0.326598632 1.000000000
0.104227918 0.067097394 0.099721255 0.002121143 -0.770540118 0.001195939 0.326598632 1.000000000
0.105180701 0.069380108 0.094422870 0.000824314 -0.763914536 -0.001439358 0.326598632 1.000000000
0.097033365 0.068998013 0.102824522 0.000024816 -0.763676500 0.001797457 0.326598632 1.000000000
0.094585652 0.072314001 0.094056100 -0.000240122 -0.760507362 -0.004145333 0.326598632 1.000000000
0.095313391 0.074453800 0.100392305 -0.000376207 -0.757458994 0.000840936 0.326598632 1.000000000
0.094737315 0.074687690 0.104731736 -0.000835731 -0.758936936 -0.000621820 0.326598632 1.000000000
0.104879322 0.070875468 0.104596126 0.001287193 -0.763860928 0.001187227 0.326598632 0.999956976
0.100524905 0.072046895 0.100856769 -0.000735715 -0.761358995 0.001477675 0.326598632 1.000000000
0.100255565 0.072621579 0.104374525 -0.000180089 -0.761021045 0.001229480 0.326598632 1.000000000
0.095887015 0.068707537 0.104421740 -0.000686388 -0.764088807 0.001962753 0.326598632 1.000000000
0.096863089 0.069418847 0.095923152 -0.001058974 -0.764738906 -0.001784948 0.326598632 1.000000000
0.102388847 0.067705872 0.105162639 -0.000296116 -0.766017357 0.001811384 0.326598632 1.000000000
0.105536746 0.073920704 0.096270502 0.003322979 -0.757387214 -0.000985102 0.326598632 1.000000000
0.094058487 0.073896036 0.099585569 -0.002537397 -0.761177406 0.000001758 0.326598632 1.000000000
0.104905557 0.068688431 0.103839864 0.001552177 -0.765134725 0.000538681 0.326598632 1.000000000
0.103080898 0.071311509 0.094007408 0.000546343 -0.761323740 -0.004604753 0.326598632 1.000000000
0.095007488 0.068403538 0.097103853 -0.001378700 -0.766099941 -0.000273566 0.326598632 1.000000000
0.095388033 0.071338445 0.097916324 -0.002414050 -0.763301571 0.000220195 0.326598632 1.000000000
0.103826392 0.066927375 0.098519522 0.002752030 -0.772528971 -0.001273711 0.326598632 1.000000000
0.094218221 0.069127682 0.095539757 -0.002661961 -0.766475355 -0.001034592 0.326598632 0.999952131
0.098705413 0.073585360 0.099186549 -0.000985919 -0.758405431 -0.001212085 0.326598632 1.000000000
0.103468576 0.072895356 0.096153024 0.002522749 -0.758901292 -0.001479735 0.326598632 1.000000000
0.105368770 0.073033151 0.096084919 0.003045754 -0.759167803 -0.001145762 0.326598632 0.999884946
0.102504537 0.073033212 0.095994991 0.000644021 -0.759205494 -0.001821490 0.326598632 1.000000000
0.094893618 0.067313745 0.099683945 -0.001848822 -0.772996735 0.000065494 0.326598632 1.000000000
0.102112657 0.074787653 0.104229886 -0.000147618 -0.757671867 0.000620851 0.326598632 1.000000000
0.101133122 0.072043566 0.099350213 0.000200194 -0.761904226 -0.001996673 0.326598632 1.000000000
0.103860732 0.067381717 0.098603044 0.002802966 -0.770479215 -0.000187487 0.326598632 1.000000000
0.097030003 0.073414140 0.098461947 -0.000646408 -0.759465138 -0.000172180 0.326598632 1.000000000
0.099623148 0.068132494 0.094009756 0.000336846 -0.763290085 -0.002161486 0.326598632 1.000000000
0.104250548 0.067676382 0.105333121 0.000579659 -0.764084414 0.001733294 0.326598632 1.000000000
0.097580807 0.073471730 0.100324322 -0.000509409 -0.760438183 0.000222070 0.326598632 1.000000000
0.096760114 0.073046259 0.104080294 -0.000696634 -0.760346723 0.001015062 0.326598632 1.000000000
0.105559969 0.073811779 0.095575040 0.002139410 -0.757981977 -0.001193868 0.326598632 0.999932539
0.104916165 0.072715256 0.094373766 0.002110406 -0.759438718 -0.002152625 0.326598632 1.000000000
0.103121210 0.074581666 0.104288690 -0.000140716 -0.758837646 0.000197820 0.326598632 1.000000000
0.097850321 0.069354368 0.099307351 -0.000269469 -0.764355283 -0.000274539 0.326598632 1.000000000
0.096403639 0.072831120 0.102693011 -0.000871489 -0.760051123 0.000336326 0.326598632 0.999967094
0.100753991 0.072582825 0.104418340 0.000291390 -0.761792790 0.001235795 0.326598632 1.000000000
0.095906695 0.071206912 0.099657121 -0.003333502 -0.762212659 -0.001237707 0.326598632 1.000000000
0.095842244 0.067586958 0.096444451 -0.001164865 -0.767488675 -0.000407385 0.326598632 1.000000000
0.094207600 0.071100795 0.099440850 -0.006338591 -0.763213840 -0.002479227 0.326598632 1.000000000
0.104943340 0.069213839 0.103561714 0.001699579 -0.763665401 0.000635989 0.326598632 1.000000000
0.099546279 0.068342316 0.105614321 -0.000007771 -0.761363195 0.001992696 0.326598632 1.000000000
0.101288561 0.071647570 0.094008467 0.000492011 -0.763612237 -0.004793997 0.326598632 1.000000000
0.096705555 0.071330252 0.096969744 -0.002366911 -0.762596691 -0.000129951 0.326598632 1.000000000
0.097909198 0.072075036 0.095928448 -0.001753645 -0.762016237 -0.002423626 0.326598632 1.000000000
0.105816223 0.070325350 0.101084302 0.003212673 -0.765370920 0.000369029 0.326598632 1.000000000
0.102165993 0.070579027 0.095792128 0.000676335 -0.763231419 -0.003148806 0.326598632 1.000000000
0.102662817 0.074665798 0.098747412 0.000316330 -0.755491014 0.001139432 0.326598632 1.000000000
0.105436374 0.072920953 0.101884938 0.002818341 -0.759551737 -0.000439498 0.326598632 1.000000000
0.102990325 0.072656226 0.104894949 0.000344745 -0.763134534 0.001573712 0.326598632 1.000000000
0.100851886 0.067680538 0.095750695 0.000626942 -0.768314848 -0.001509854 0.326598632 1.000000000
0.096524211 0.070720364 0.094217016 0.000357314 -0.764045248 -0.004148374 0.326598632 1.000000000
0.105296648 0.073067757 0.098151451 0.002501536 -0.762157681 0.000886801 0.326598632 1.000000000
0.104591443 0.071138876 0.094867858 0.001220884 -0.760402727 -0.001928018 0.326598632 1.000000000
0.098292497 0.073460179 0.094988507 -0.001679731 -0.760039618 -0.002946818 0.326598632 1.000000000
0.096410239 0.074686618 0.097865186 -0.000808918 -0.758616792 0.000109850 0.326598632 0.999846309
0.094491083 0.073437645 0.102319307 -0.002203290 -0.759615203 0.000706142 0.326598632 1.000000000
0.095491011 0.074481285 0.102046857 -0.000055281 -0.757719753 0.001023020 0.326598632 1.000000000
0.101400091 0.071619948 0.104756154 0.000774435 -0.762616194 0.002113253 0.326598632 1.000000000
0.105224643 0.069250564 0.101356552 0.002630625 -0.764177684 0.000655486 0.326598632 1.000000000
0.103401628 0.071862724 0.105369398 0.000381880 -0.764319576 0.001536945 0.326598632 1.000000000
0.101931457 0.070735708 0.101347779 0.001773532 -0.764914791 0.000806482 0.326598632 1.000000000
0.103407390 0.071639946 0.100636767 0.002029368 -0.763292426 0.000234437 0.326598632 1.000000000
0.095967993 0.067175440 0.099772778 -0.001563559 -0.775449592 0.000694132 0.326598632 1.000000000
0.101119386 0.072663877 0.099262589 0.000353133 -0.758346826 -0.001073955 0.326598632 1.000000000
0.101390097 0.070694643 0.101804784 0.000722883 -0.764485655 0.001422266 0.326598632 1.000000000
0.102932975 0.070620661 0.097947356 0.000876629 -0.765711817 -0.000127012 0.326598632 1.000000000
0.094520949 0.070328371 0.104464539 -0.002588798 -0.765833516 0.002324860 0.326598632 1.000000000
0.101840349 0.067022487 0.095940820 0.000936169 -0.770812433 -0.001009235 0.326598632 1.000000000
0.099920662 0.071201374 0.097985726 -0.000162920 -0.764457366 -0.001687242 0.326598632 1.000000000
0.096646040 0.070086281 0.094975534 -0.000724446 -0.765253521 -0.003288272 0.326598632 1.000000000
0.104087691 0.068488096 0.099019874 0.002267315 -0.764155895 0.000178037 0.326598632 1.000000000
0.098990174 0.074553997 0.096089827 -0.000636974 -0.756874118 -0.001062845 0.326598632 1.000000000
0.102824754 0.072005042 0.104155701 0.000765915 -0.762922276 0.001513814 0.326598632 1.000000000
0.100519475 0.071014657 0.103213946 -0.000444143 -0.762171942 0.001398195 0.326598632 1.000000000
0.094347735 0.071680887 0.100169158 -0.004573749 -0.760970425 -0.000166504 0.326598632 1.000000000
0.101173770 0.071825588 0.098744081 0.000817998 -0.762703831 -0.002153407 0.326598632 1.000000000
0.105906990 0.072216925 0.103516278 0.002929746 -0.761205880 0.002096486 0.326598632 1.000000000
0.098606944 0.069847068 0.097405467 0.000226660 -0.764156839 -0.000813488 0.326598632 0.999851640
0.096829779 0.073665548 0.099589835 -0.000442979 -0.759892855 0.000252627 0.326598632 1.000000000
0.101222452 0.070217046 0.103313341 -0.000036981 -0.763647331 0.001037054 0.326598632 1.000000000
0.100151563 0.069955573 0.101591153 0.000391347 -0.764877782 0.001251223 0.326598632 1.000000000
0.099245851 0.067522837 0.098958181 0.000180930 -0.770007486 0.000707861 0.326598632 1.000000000
0.101116088 0.070214740 0.095165730 0.000542688 -0.763584318 -0.003593930 0.326598632 1.000000000
0.095140008 0.072278357 0.100955441 -0.002369551 -0.760843487 0.000966830 0.326598632 1.000000000
0.098788578 0.069470910 0.101827630 0.000393592 -0.765857495 0.002336150 0.326598632 1.000000000
0.101059737 0.067040581 0.104298698 -0.001036036 -0.769689468 0.001570395 0.326598632 1.000000000
0.096842138 0.070147543 0.101185159 -0.001241380 -0.763264929 -0.000103634 0.326598632 1.000000000
0.099302334 0.074049717 0.096816855 -0.000902187 -0.757619767 0.000805787 0.326598632 1.000000000
0.102032040 0.070562822 0.097970644 0.000351988 -0.767375754 -0.000349783 0.326598632 1.000000000
0.101055081 0.070570846 0.095746689 0.000291775 -0.763775076 -0.003013463 0.326598632 1.000000000
0.098311224 0.068990984 0.105386259 0.000079185 -0.766133872 0.003235432 0.326598632 1.000000000
0.098279583 0.071819320 0.098552517 -0.001454379 -0.762428599 -0.000210696 0.326598632 1.000000000
0.102464720 0.073233842 0.100402716 0.001618357 -0.758585785 0.000567080 0.326598632 1.000000000
0.100697419 0.073893195 0.099356925 -0.000018098 -0.755393575 0.000813909 0.326598632 1.000000000
0.105842098 0.067245241 0.100479283 0.002045466 -0.767726294 0.000424315 0.326598632 1.000000000
0.094618732 0.068823076 0.095473958 -0.001739364 -0.765595433 -0.001128933 0.326598632 0.999950284
0.096158085 0.068769774 0.101678737 -0.001769385 -0.765271546 0.000429286 0.326598632 1.000000000
0.101017046 0.067799323 0.095061520 0.000574408 -0.766539721 -0.001334142 0.326598632 1.000000000
0.099758424 0.070153376 0.102259680 -0.000052367 -0.764716988 0.001335411 0.326598632 1.000000000
0.097878754 0.067107783 0.102232288 0.001057541 -0.769835756 0.000753509 0.326598632 1.000000000
0.097050887 0.071614998 0.105679351 -0.000155869 -0.760157662 0.001494777 0.326598632 1.000000000
0.100386006 0.069713223 0.100259610 0.000041452 -0.765576607 0.000064672 0.326598632 1.000000000
0.095720658 0.068034609 0.095507764 -0.001189208 -0.765359611 -0.000897251 0.326598632 1.000000000
0.095948277 0.072838873 0.105280228 -0.000419664 -0.760571345 0.001420767 0.326598632 0.999917808
0.095873568 0.072825227 0.096258007 -0.000883500 -0.758731116 -0.001360074 0.326598632 1.000000000
0.097063066 0.074687638 0.096814188 -0.003618156 -0.756637988 -0.000332879 0.326598632 0.999871527
0.098492508 0.074809249 0.101939053 0.000432667 -0.758253078 -0.000557877 0.326598632 1.000000000
0.103970711 0.068927399 0.094208395 0.000359243 -0.765622762 -0.001588115 0.326598632 1.000000000
0.095355689 0.073126269 0.104375631 -0.001025367 -0.760428157 0.000582018 0.326598632 1.000000000
0.101207219 0.074328702 0.103547000 0.000368569 -0.757784829 0.000706822 0.326598632 1.000000000
0.102004646 0.073591089 0.105291520 0.001278621 -0.761511861 0.001291864 0.326598632 1.000000000
0.095908135 0.069762586 0.100923311 -0.003148879 -0.762972369 -0.000790991 0.326598632 1.000000000
0.104398618 0.069517847 0.101259868 0.002002101 -0.764450479 0.000111566 0.326598632 1.000000000
0.095084950 0.072993185 0.105924363 -0.000576426 -0.763241270 0.002707047 0.326598632 1.000000000
0.101807552 0.067842085 0.097462356 -0.000179593 -0.771247360 -0.002395624 0.326598632 1.000000000
0.099258952 0.074386304 0.103182882 0.000011043 -0.756615795 0.001460665 0.326598632 1.000000000
0.097806414 0.074000826 0.104818627 -0.000053925 -0.759166029 0.001808399 0.326598632 1.000000000
0.097560681 0.069979487 0.104428458 -0.000926714 -0.762356569 0.002593795 0.326598632 1.000000000
0.101563087 0.069599534 0.101789915 0.000196051 -0.765264813 0.000821490 0.326598632 1.000000000
0.098564325 0.071483471 0.101318057 -0.002225129 -0.762120129 0.000491767 0.326598632 1.000000000
0.100547493 0.071746525 0.100581889 -0.001264216 -0.763348385 0.000276453 0.326598632 1.000000000
0.101044498 0.067081180 0.099334121 -0.002268976 -0.776204024 0.001037540 0.326598632 1.000000000
0.103114144 0.072119080 0.096019022 0.001861734 -0.759943711 -0.001829581 0.326598632 1.000000000
0.105422167 0.071314432 0.100004762 0.005459990 -0.762262914 0.001518155 0.326598632 1.000000000
0.103765262 0.074291106 0.104166410 0.000490923 -0.759851683 0.000041991 0.326598632 1.000000000
0.100319817 0.068165041 0.095305773 0.000372150 -0.765727595 -0.001536374 0.326598632 1.000000000
0.098732335 0.070788713 0.096951991 -0.000197083 -0.764526068 -0.000865590 0.326598632 1.000000000
0.102586593 0.072953555 0.100593333 0.002027990 -0.759790171 -0.000220117 0.326598632 0.999938564
0.099169303 0.073556991 0.100254858 -0.001448655 -0.758594105 0.000740384 0.326598632 1.000000000
0.105456649 0.067540605 0.104760682 0.001118716 -0.767541621 0.000340316 0.326598632 1.000000000
0.096364250 0.070014443 0.101858046 -0.002660741 -0.763614996 0.002714942 0.326598632 1.000000000
0.095995015 0.068526693 0.099749742 -0.002184302 -0.766415275 -0.001032034 0.326598632 1.000000000
0.102043046 0.071159416 0.101409351 0.001930932 -0.763899255 0.001057688 0.326598632 1.000000000
0.100971951 0.071233450 0.105157596 0.000686201 -0.760623905 0.002345365 0.326598632 1.000000000
0.098797621 0.072717207 0.095073541 -0.001190133 -0.761658038 -0.003055742 0.326598632 1.000000000
0.100268175 0.073562188 0.105724154 -0.001316528 -0.760949558 0.004838397 0.326598632 1.000000000
0.103598437 0.073968309 0.095477522 0.002907413 -0.755415107 -0.003001474 0.326598632 1.000000000
0.103522315 0.069448696 0.096214160 0.001137021 -0.765703833 -0.001559643 0.326598632 1.000000000
0.099093460 0.074435516 0.096222350 -0.000716136 -0.757196012 -0.000797953 0.326598632 1.000000000
0.098481109 0.073617140 0.095043016 -0.001635363 -0.759717095 -0.002667185 0.326598632 1.000000000
0.094024857 0.067983818 0.100319779 -0.004633817 -0.766631965 0.000038560 0.326598632 1.000000000
0.101123721 0.071209371 0.101657343 0.000590181 -0.763214328 0.001831612 0.326598632 1.000000000
0.096096420 0.072262969 0.103525200 -0.000913811 -0.759840103 0.000553945 0.326598632 1.000000000
0.103240802 0.074340858 0.098329612 0.001735918 -0.756653776 0.001070993 0.326598632 1.000000000
0.097623568 0.069131114 0.100681685 -0.000874379 -0.764859631 0.000952423 0.326598632 1.000000000
0.102057880 0.073901515 0.102784120 0.000723217 -0.757918621 0.001467269 0.326598632 1.000000000
0.095795269 0.073225376 0.103714576 -0.000826434 -0.758953021 0.000512253 0.326598632 1.000000000
0.096821546 0.068305994 0.099086289 -0.001749764 -0.767454809 -0.001233596 0.326598632 1.000000000
0.100424492 0.070872165 0.104432864 -0.000201389 -0.761370710 0.002139223 0.326598632 1.000000000
0.096761767 0.069585434 0.096139787 -0.001405995 -0.764597613 -0.001555195 0.326598632 1.000000000
0.097082113 0.072194688 0.096473342 -0.005817814 -0.761301573 -0.000125208 0.326598632 1.000000000
0.095698592 0.067551483 0.101582738 -0.001957693 -0.767456077 -0.000635711 0.326598632 1.000000000
0.102110073 0.071867142 0.097295582 0.001900156 -0.762770790 0.000209635 0.326598632 1.000000000
0.102694444 0.070652799 0.099312603 0.000805015 -0.765245029 -0.000727451 0.326598632 1.000000000
0.103824602 0.069817862 0.094188094 0.000490628 -0.763403413 -0.002052948 0.326598632 1.000000000
0.104868078 0.069784348 0.101239184 0.002341011 -0.764381940 0.000342634 0.326598632 1.000000000
0.101743839 0.069206903 0.103272283 0.000140964 -0.764332021 0.001142207 0.326598632 1.000000000
0.098403052 0.070297224 0.101150541 -0.000835495 -0.764572023 0.001559958 0.326598632 1.000000000
0.099308443 0.072026658 0.098122413 -0.001649093 -0.762408692 -0.000250029 0.326598632 1.000000000
0.094836955 0.072446692 0.103982580 -0.001912518 -0.761514337 0.000628391 0.326598632 1.000000000
0.101113665 0.069254042 0.101683081 -0.000199528 -0.765051257 0.000878614 0.326598632 0.999904901
0.099482877 0.068931492 0.102162793 0.000781103 -0.767251693 0.001845583 0.326598632 1.000000000
0.098541025 0.067502528 0.096283030 -0.000286983 -0.767409236 -0.001344783 0.326598632 1.000000000
0.099356141 0.075057876 0.098355286 0.001186489 -0.756937476 0.000300296 0.326598632 0.999944215
0.095062016 0.071730972 0.098002437 -0.002981367 -0.762167659 0.000158401 0.326598632 1.000000000
0.103058394 0.072166614 0.105541207 -0.000028950 -0.764382291 0.001797152 0.326598632 1.000000000
0.099073099 0.070364300 0.096044065 0.000427351 -0.764360373 -0.002092544 0.326598632 1.000000000
0.097610660 0.067093244 0.103861551 0.000556746 -0.769169403 0.000118379 0.326598632 1.000000000
0.098591473 0.070888485 0.105779338 0.000239831 -0.763277887 0.004058737 0.326598632 1.000000000
0.094239738 0.074887156 0.095438239 -0.000557083 -0.757800637 0.000208276 0.326598632 1.000000000
0.096923388 0.073239670 0.102846234 -0.000914786 -0.760658437 0.000484356 0.326598632 1.000000000
0.097084557 0.067828100 0.102059365 -0.000286457 -0.767342469 0.000836666 0.326598632 1.000000000
0.101301975 0.074009315 0.103455743 0.000377248 -0.758345336 0.000994798 0.326598632 1.000000000
0.094754571 0.068358245 0.100080929 -0.002577658 -0.767154280 -0.001484464 0.326598632 1.000000000
0.098100849 0.068906856 0.095409640 0.000234237 -0.763555190 -0.001869088 0.326598632 1.000000000
0.096865572 0.069859689 0.098570200 -0.002396845 -0.762752700 -0.000044491 0.326598632 1.000000000
0.097356973 0.073693315 0.100116733 -0.000298819 -0.760194778 0.000222450 0.326598632 1.000000000
0.095942214 0.074079520 0.105310517 0.000511493 -0.760570614 0.001561433 0.326598632 1.000000000
0.100798970 0.071687004 0.103435792 -0.000454426 -0.761013614 0.001283435 0.326598632 1.000000000
0.098764789 0.071096958 0.098692917 -0.001813896 -0.764275276 -0.000551518 0.326598632 1.000000000
0.102093553 0.072113656 0.100476798 0.002213660 -0.761244647 -0.000564792 0.326598632 1.000000000
0.095694517 0.072863036 0.100390895 -0.001530256 -0.760417309 0.000622883 0.326598632 1.000000000
0.097869655 0.073642619 0.096543444 -0.002628355 -0.758472816 -0.000829961 0.326598632 1.000000000
0.096682464 0.068317008 0.094272434 -0.000732828 -0.764178551 -0.001894785 0.326598632 1.000000000
0.105193407 0.071673037 0.105488601 0.001262774 -0.762937349 0.000982441 0.326598632 1.000000000
0.097763207 0.070923798 0.100902160 -0.000637929 -0.761627777 -0.000404484 0.326598632 1.000000000
0.104780353 0.068199836 0.101277357 0.002158534 -0.766218480 0.001113263 0.326598632 1.000000000
0.105435208 0.069626511 0.103952574 0.001769335 -0.763935492 0.000729858 0.326598632 1.000000000
0.095459535 0.072420448 0.103902719 -0.001316642 -0.760481046 0.000692297 0.326598632 1.000000000
0.096788674 0.071138892 0.099737315 -0.001839659 -0.761708281 -0.001963999 0.326598632 1.000000000
0.095464336 0.073306093 0.094957910 -0.000047854 -0.759143410 -0.001169334 0.326598632 1.000000000
0.104514758 0.074586897 0.101132275 0.000906700 -0.756974333 0.001015430 0.326598632 1.000000000
0.094002129 0.073902547 0.097332518 -0.001708337 -0.760653285 -0.000371403 0.326598632 1.000000000
0.098376095 0.071910078 0.094208123 -0.000840119 -0.762041079 -0.004200197 0.326598632 1.000000000
0.096299492 0.071603968 0.098636874 -0.001612839 -0.762393911 -0.001360147 0.326598632 1.000000000
0.103052579 0.070965289 0.096540318 0.001631587 -0.763503124 -0.001131657 0.326598632 1.000000000
0.099164750 0.069465139 0.101435618 0.000812315 -0.766006563 0.002168103 0.326598632 1.000000000
0.103393344 0.067680366 0.096047479 0.001352221 -0.769536538 -0.001500998 0.326598632 1.000000000
0.102301518 0.068506502 0.097184670 0.002692457 -0.768102114 -0.000499956 0.326598632 1.000000000
0.096746001 0.072156929 0.101417626 -0.001298890 -0.760834935 -0.000067317 0.326598632 1.000000000
0.096083435 0.068967537 0.096790836 -0.001893029 -0.765132126 -0.000570373 0.326598632 1.000000000
0.102692514 0.073991022 0.101869014 0.001267544 -0.756915868 0.000087268 0.326598632 1.000000000
0.101849018 0.070440372 0.103506122 0.000056014 -0.763601308 0.000998744 0.326598632 1.000000000
0.099780022 0.071406044 0.098249545 -0.000768681 -0.764056677 -0.001368399 0.326598632 1.000000000
0.105567106 0.070299348 0.096122185 0.001657346 -0.760965648 -0.000897355 0.326598632 1.000000000
0.099023453 0.068270933 0.096982196 0.000127313 -0.763228061 -0.000991510 0.326598632 1.000000000
0.102172047 0.071860139 0.103484391 0.000108558 -0.762449663 0.000614126 0.326598632 1.000000000
0.097880752 0.072154456 0.096275757 -0.001703852 -0.761950924 -0.000402947 0.326598632 1.000000000
0.096385147 0.072237097 0.104012372 -0.000928941 -0.760727446 0.000770389 0.326598632 1.000000000
0.098457328 0.067540494 0.094773124 0.000213517 -0.766010484 -0.001990189 0.326598632 1.000000000
0.099991545 0.072371694 0.097191163 -0.000025596 -0.761477621 0.000149785 0.326598632 1.000000000
0.095525031 0.068393487 0.097191547 -0.001580220 -0.766654658 -0.000501569 0.326598632 1.000000000
0.101821228 0.069149806 0.104377401 0.000415172 -0.764251999 0.001816303 0.326598632 1.000000000
0.104315853 0.072115094 0.103729045 0.001809555 -0.761970099 0.001540600 0.326598632 0.999882429
0.095597578 0.074857508 0.098709195 -0.000189764 -0.758099272 0.000285248 0.326598632 1.000000000
0.105315435 0.072474424 0.095224834 0.002716118 -0.759558232 -0.001595203 0.326598632 1.000000000
0.097353029 0.067810213 0.103707191 0.000662474 -0.766854759 0.000838419 0.326598632 1.000000000
0.103373992 0.069226857 0.105166646 0.000418041 -0.762032441 0.003606820 0.326598632 1.000000000
0.098635827 0.071168183 0.103902981 -0.001022757 -0.762102888 0.002725128 0.326598632 1.000000000
0.104675352 0.069016166 0.099400995 0.003738014 -0.763438982 -0.000667932 0.326598632 1.000000000
0.095267490 0.074265618 0.099407643 -0.000758675 -0.758703697 0.000270219 0.326598632 1.000000000
0.094572874 0.070748197 0.105861253 -0.001208187 -0.764257126 0.001791423 0.326598632 1.000000000
0.101908290 0.073176080 0.094453678 -0.000161267 -0.757049677 -0.002840121 0.326598632 1.000000000
0.094423214 0.068042525 0.103626201 -0.003357309 -0.766556209 0.001227225 0.326598632 1.000000000
0.099542910 0.070301289 0.100102233 -0.001005460 -0.765366810 -0.000506800 0.326598632 1.000000000
0.105307565 0.074976248 0.105900365 -0.001117985 -0.745997143 0.004569624 0.326598632 1.000000000
0.098944588 0.070041164 0.103407700 -0.001063275 -0.763919642 0.001790291 0.326598632 1.000000000
0.094822189 0.073849294 0.100596785 -0.001386411 -0.759044197 0.001034511 0.326598632 1.000000000
0.100175188 0.067858991 0.099092795 -0.002962723 -0.769953939 -0.000001357 0.326598632 1.000000000
0.096733870 0.073463829 0.104788859 -0.000299616 -0.760507713 0.001448910 0.326598632 1.000000000
0.094122322 0.072540721 0.105713588 -0.002726466 -0.764093159 0.001707996 0.326598632 1.000000000
0.094829155 0.069286651 0.097064366 -0.002177283 -0.765353687 -0.000549972 0.326598632 1.000000000
0.104750338 0.071027031 0.105518623 0.001099004 -0.763167555 0.000888496 0.326598632 0.999690382
0.099692353 0.068202346 0.097866354 -0.000170034 -0.766682228 -0.001005901 0.326598632 1.000000000
0.105044744 0.071092322 0.095366897 0.001454701 -0.760457810 -0.001215448 0.326598632 1.000000000
0.095877060 0.072136562 0.100249609 -0.002520924 -0.761030021 0.000102846 0.326598632 1.000000000
0.101183158 0.068087877 0.094523497 0.000708549 -0.764900269 -0.001656644 0.326598632 1.000000000
0.100601368 0.070209315 0.095137775 0.000200720 -0.763462450 -0.003144700 0.326598632 1.000000000
0.097285315 0.068506371 0.098662160 -0.000871612 -0.766860500 -0.001430972 0.326598632 1.000000000
0.099951876 0.072610562 0.105142591 -0.000970927 -0.760708365 0.002043093 0.326598632 1.000000000
0.102057400 0.075146660 0.094151989 -0.000046383 -0.756683257 -0.001881280 0.326598632 1.000000000
0.097101249 0.074239942 0.097803139 -0.001806344 -0.758504463 0.000424722 0.326598632 0.999733054
0.096651253 0.072293876 0.100528528 -0.001756725 -0.760810936 0.000068760 0.326598632 1.000000000
0.100694428 0.073187164 0.105743755 0.000767725 -0.763034035 0.004256539 0.326598632 1.000000000
0.097839420 0.067628769 0.096166380 -0.000928319 -0.767703324 -0.001135956 0.326598632 1.000000000
0.100475396 0.069354885 0.103038714 0.000314912 -0.764148780 0.000820016 0.326598632 1.000000000
0.102223775 0.068061709 0.102736241 -0.000487873 -0.768112598 0.001130986 0.326598632 1.000000000
0.099860607 0.074929357 0.095101621 -0.000673183 -0.755915567 -0.001565747 0.326598632 1.000000000
0.098961681 0.069940299 0.095806217 0.000290379 -0.764180282 -0.002311315 0.326598632 1.000000000
0.101343673 0.073151136 0.103098737 -0.000428510 -0.759901124 0.001006574 0.326598632 1.000000000
0.095123726 0.068413273 0.095270026 -0.001262787 -0.764696425 -0.001111435 0.326598632 1.000000000
0.099205486 0.074222448 0.100925476 -0.000610760 -0.757118873 0.000391529 0.326598632 1.000000000
0.103743182 0.071669048 0.095928884 0.001609293 -0.759640921 -0.001172748 0.326598632 1.000000000
0.097334431 0.074257616 0.102900937 -0.000545442 -0.759218635 0.000633107 0.326598632 1.000000000
0.101890865 0.074246995 0.096327052 -0.000722478 -0.754193047 -0.000033888 0.326598632 1.000000000
0.103783949 0.073142466 0.097731113 0.001648514 -0.761806374 0.001192998 0.326598632 1.000000000
0.098503110 0.072707731 0.101378742 -0.001441044 -0.761052346 0.000311767 0.326598632 0.999979955
0.104178372 0.071394072 0.100464490 0.002628905 -0.763373921 0.000912665 0.326598632 1.000000000
0.094129597 0.073866042 0.104078525 -0.002777389 -0.760879532 -0.000750654 0.326598632 1.000000000
0.102141566 0.073273058 0.102995470 0.000085878 -0.760922315 0.001705867 0.326598632 1.000000000
0.099644609 0.073941515 0.103075401 0.000316196 -0.758350764 0.000531281 0.326598632 1.000000000
0.098626167 0.068195033 0.100025029 0.001162660 -0.768512482 0.000768167 0.326598632 1.000000000
0.096607028 0.073448639 0.101720784 -0.000312347 -0.760407886 0.000434160 0.326598632 1.000000000
0.094019759 0.072508740 0.095653561 -0.003869686 -0.760603440 -0.000444292 0.326598632 1.000000000
0.096001538 0.067545406 0.096140068 -0.001229510 -0.767402784 -0.000530083 0.326598632 1.000000000
0.098828392 0.070416746 0.096174417 0.000339466 -0.764198018 -0.001876863 0.326598632 1.000000000
0.102681204 0.071395735 0.104491932 0.000429697 -0.763744092 0.001329061 0.326598632 1.000000000
0.102435966 0.069118911 0.095247973 0.001705156 -0.764838194 -0.002126855 0.326598632 1.000000000
0.101193193 0.071207838 0.094630444 0.000462066 -0.763224516 -0.004639349 0.326598632 1.000000000
0.097865970 0.067492342 0.101226627 0.000387566 -0.771355809 0.001307581 0.326598632 1.000000000
0.102345234 0.068503759 0.101639051 -0.000328248 -0.765636918 0.000458115 0.326598632 1.000000000
0.096518154 0.075177134 0.102951350 0.000016677 -0.756318756 0.000242944 0.326598632 1.000000000
0.098480681 0.071480569 0.103903160 -0.000873337 -0.761938136 0.002859177 0.326598632 1.000000000
0.096830114 0.073202737 0.095467642 -0.001986701 -0.759144700 -0.001748889 0.326598632 1.000000000
0.103618195 0.067812153 0.098456792 0.001522449 -0.768361801 0.000613027 0.326598632 1.000000000
0.097592332 0.073186512 0.103200476 -0.000812312 -0.760418781 0.001336049 0.326598632 1.000000000
0.099952355 0.072416300 0.096080222 -0.000850457 -0.763238437 -0.002662296 0.326598632 1.000000000
0.105894949 0.072805869 0.096138875 0.002339263 -0.759659837 -0.000948374 0.326598632 0.999969304
0.105405187 0.073237554 0.102967293 0.002152022 -0.759710096 0.000721233 0.326598632 1.000000000
0.105757327 0.071842882 0.096434620 0.002244684 -0.758964583 -0.000668577 0.326598632 1.000000000
0.101029895 0.072920411 0.095980966 0.001167287 -0.758943761 -0.002350033 0.326598632 1.000000000
0.105157606 0.072898473 0.101037717 0.002931494 -0.760253393 0.000304801 0.326598632 0.999910266
0.104232970 0.067762015 0.103391062 0.000745867 -0.767278547 0.000508521 0.326598632 1.000000000
0.099541652 0.070330632 0.096705131 0.000074316 -0.765045228 -0.001433958 0.326598632 1.000000000
0.105251158 0.070796885 0.099770715 0.004077723 -0.763558978 0.000446419 0.326598632 1.000000000
0.094595704 0.072367414 0.102472998 -0.003115855 -0.761071711 0.001156264 0.326598632 1.000000000
0.103362451 0.074593948 0.104847347 -0.000572976 -0.758208123 0.000311329 0.326598632 1.000000000
0.096701997 0.067772633 0.094082852 -0.000819082 -0.764843518 -0.001743227 0.326598632 1.000000000
0.105072247 0.070507276 0.095575688 0.000989113 -0.761630718 -0.000998597 0.326598632 1.000000000
0.097391951 0.067414181 0.099664815 -0.000930699 -0.772146956 -0.000107488 0.326598632 1.000000000
0.097308193 0.067604493 0.094533693 -0.000633960 -0.765754664 -0.001715318 0.326598632 1.000000000
0.105699177 0.073615971 0.097307797 0.004724992 -0.758466664 0.000212051 0.326598632 1.000000000
0.104139936 0.070747723 0.098453963 0.001716746 -0.761202208 -0.000589223 0.326598632 1.000000000
0.104237998 0.068565341 0.097217451 0.000112813 -0.765342833 0.000054818 0.326598632 1.000000000
0.100744047 0.072275076 0.094555129 0.000304868 -0.760296445 -0.003240544 0.326598632 1.000000000
0.103264760 0.069833028 0.098150487 0.001485078 -0.766674900 0.000143598 0.326598632 1.000000000
0.102789991 0.069209902 0.095035400 0.001233414 -0.764461342 -0.002090107 0.326598632 1.000000000
0.104586860 0.068337755 0.100580358 0.002101659 -0.765876703 0.000844573 0.326598632 1.000000000
0.103454190 0.073941686 0.098722220 0.002630105 -0.758687632 0.001310568 0.326598632 1.000000000
0.105756489 0.071271671 0.101493086 0.002788001 -0.762838931 -0.000773103 0.326598632 1.000000000
0.096293489 0.073119808 0.095739010 -0.001405965 -0.758914154 -0.001210100 0.326598632 1.000000000
0.105367043 0.069785727 0.098058804 0.003401860 -0.761784005 -0.000029566 0.326598632 1.000000000
0.094263311 0.068781395 0.105609973 -0.001591058 -0.763369962 0.002430271 0.326598632 1.000000000
0.095063795 0.070661939 0.102642919 -0.002961013 -0.762259112 0.002947629 0.326598632 1.000000000
0.105767865 0.071677186 0.102205093 0.003106942 -0.760494391 -0.000554850 0.326598632 1.000000000
0.100510691 0.070547415 0.096727703 0.000141053 -0.764416062 -0.001394268 0.326598632 1.000000000
0.101355199 0.071707245 0.103500739 0.000037490 -0.761689294 0.001138087 0.326598632 1.000000000
0.099141935 0.074094881 0.096714138 -0.000527098 -0.757982650 0.000503804 0.326598632 1.000000000
0.096592345 0.072630606 0.095690656 -0.002962488 -0.760544644 -0.001636864 0.326598632 0.999911401
0.099521460 0.074215753 0.095169674 -0.000599761 -0.757532028 -0.001567038 0.326598632 1.000000000
0.103444817 0.069639689 0.102991919 0.001475693 -0.764010315 0.001115592 0.326598632 1.000000000
0.105737830 0.070164313 0.095342686 0.001734083 -0.762115007 -0.001198748 0.326598632 1.000000000
0.098076099 0.071295574 0.103529180 -0.001109658 -0.761982080 0.002121066 0.326598632 1.000000000
0.103101722 0.071673836 0.104466388 0.000720519 -0.763406548 0.001156932 0.326598632 1.000000000
0.095513425 0.067455971 0.103049490 -0.001582558 -0.767093475 0.000262680 0.326598632 1.000000000
0.097065882 0.068607245 0.101916851 -0.000851614 -0.765477338 0.001382626 0.326598632 1.000000000
0.103009147 0.071795565 0.105360677 0.000245468 -0.764927547 0.001624975 0.326598632 1.000000000
0.095126942 0.071736896 0.100696717 -0.003138116 -0.761474405 0.000912841 0.326598632 1.000000000
0.098689348 0.069573089 0.098123679 0.000295762 -0.764876884 -0.000633921 0.326598632 1.000000000
0.099420228 0.070290997 0.103581567 -0.000556805 -0.763333838 0.002115946 0.326598632 1.000000000
0.099293149 0.068060879 0.098769050 0.000131570 -0.767738754 -0.000039474 0.326598632 1.000000000
0.095127299 0.068808936 0.096346680 -0.001417264 -0.764592955 -0.000753970 0.326598632 1.000000000
0.097317252 0.073377498 0.098279824 -0.000657836 -0.759702625 -0.000122673 0.326598632 1.000000000
0.096349274 0.072458179 0.097747079 -0.001411630 -0.760123812 -0.000605179 0.326598632 1.000000000
0.099371401 0.071479272 0.104766317 -0.000521667 -0.760781347 0.002849704 0.326598632 1.000000000
0.101360358 0.068639163 0.100693626 -0.001135513 -0.765565441 0.000912720 0.326598632 0.999650685
0.096026170 0.074496689 0.098357611 -0.000344926 -0.758699621 0.000244234 0.326598632 1.000000000
0.094397402 0.072101762 0.100084800 -0.003750668 -0.760302118 -0.000203989 0.326598632 1.000000000
0.103846698 0.073291406 0.098364409 0.003100554 -0.761158109 0.000779362 0.326598632 1.000000000
0.105614074 0.073820460 0.097758546 0.003981591 -0.757901268 0.002827842 0.326598632 1.000000000
0.102876823 0.068369463 0.104283401 -0.000216503 -0.764460029 0.001406705 0.326598632 1.000000000
0.099824260 0.075341258 0.097835954 -0.000163053 -0.755601915 0.000098601 0.326598632 0.999959716
0.097875702 0.073233022 0.095467891 -0.001437425 -0.759432207 -0.003138619 0.326598632 1.000000000
0.101873771 0.075272322 0.105965486 0.000444545 -0.757108477 0.001055997 0.326598632 0.999989113
0.095115588 0.072926255 0.095557136 -0.000747974 -0.759945632 -0.001069801 0.326598632 1.000000000
0.096516941 0.074017589 0.094350150 0.000039791 -0.757400195 -0.002239602 0.326598632 1.000000000
0.098041827 0.075221261 0.098548553 -0.002303658 -0.756716115 0.000813960 0.326598632 1.000000000
0.095328721 0.074778796 0.097557785 -0.000375298 -0.758288929 -0.000075744 0.326598632 1.000000000
0.104815926 0.075337659 0.103114967 0.000536926 -0.757657655 -0.000323778 0.326598632 1.000000000
0.097050551 0.069941147 0.101821269 -0.001143910 -0.764071122 0.002404946 0.326598632 1.000000000
0.100305614 0.074472528 0.103831807 0.000539991 -0.756262330 0.001553622 0.326598632 1.000000000
0.095045205 0.068331146 0.096931795 -0.001209617 -0.765794141 -0.000310177 0.326598632 1.000000000
0.104865206 0.070790579 0.102629036 0.000298230 -0.762548130 -0.000029425 0.326598632 1.000000000
0.101365257 0.068957991 0.102876648 -0.000132194 -0.764679408 0.000867256 0.326598632 1.000000000
0.102857885 0.072048105 0.099224985 0.001673807 -0.762019452 -0.001759393 0.326598632 1.000000000
0.097047258 0.074182229 0.103674957 -0.000513922 -0.759034098 0.000825879 0.326598632 1.000000000
0.095276198 0.073346431 0.094371983 0.000430621 -0.759294148 -0.001878383 0.326598632 1.000000000
0.102180703 0.067455043 0.097777522 0.001034315 -0.772989845 -0.002544843 0.326598632 1.000000000
0.105902365 0.072673774 0.096005266 0.002326284 -0.759744724 -0.000938863 0.326598632 1.000000000
0.098084778 0.068045378 0.094870785 0.000122464 -0.764251441 -0.001596146 0.326598632 1.000000000
0.098324691 0.069152574 0.104397880 0.000012077 -0.764827058 0.002228800 0.326598632 1.000000000
0.098899007 0.073536806 0.094820685 -0.001432118 -0.759779434 -0.002883470 0.326598632 1.000000000
0.096792899 0.074662059 0.103111305 -0.000289216 -0.758162739 0.000450681 0.326598632 1.000000000
0.104786573 0.067899853 0.103688763 0.000855622 -0.766758764 0.000148489 0.326598632 1.000000000
0.094001263 0.074427322 0.101809659 -0.001305761 -0.757666119 0.000600114 0.326598632 1.000000000
0.098554007 0.070547086 0.096027487 -0.000006663 -0.763801032 -0.002028715 0.326598632 1.000000000
0.095544279 0.070482704 0.096719580 -0.002879958 -0.762882859 -0.001348699 0.326598632 1.000000000
0.099748759 0.073851160 0.098953091 -0.000347299 -0.756496135 -0.000021018 0.326598632 1.000000000
0.094324625 0.070801612 0.094214748 -0.003201043 -0.765408660 -0.002988650 0.326598632 1.000000000
0.102492428 0.068449245 0.105597216 -0.000253361 -0.763900070 0.003668799 0.326598632 1.000000000
0.102392094 0.074040161 0.105674076 0.000610198 -0.759993006 0.001419270 0.326598632 1.000000000
0.101455763 0.075288288 0.104074414 -0.000331624 -0.756704083 0.000852811 0.326598632 1.000000000
0.100391784 0.072457327 0.100710788 -0.000767469 -0.759884717 0.001466128 0.326598632 1.000000000
0.096618970 0.071028929 0.101621724 -0.001781934 -0.760559565 0.000656846 0.326598632 1.000000000
0.097159178 0.067974603 0.095442026 -0.000836454 -0.766042506 -0.001311181 0.326598632 1.000000000
0.097404970 0.071968021 0.094551363 -0.001840323 -0.761214122 -0.003300329 0.326598632 1.000000000
0.096716157 0.068020854 0.103895354 -0.000074212 -0.766072576 0.001147216 0.326598632 1.000000000
0.094772038 0.072221454 0.102763944 -0.002678392 -0.760801669 0.001169290 0.326598632 1.000000000
0.097965033 0.074451110 0.104528073 0.000013545 -0.757726924 0.001384858 0.326598632 1.000000000
0.101514016 0.075346797 0.098084851 -0.000044222 -0.754016184 -0.000004123 0.326598632 1.000000000
0.097423868 0.074137341 0.100375535 0.000038520 -0.759359337 0.000068183 0.326598632 1.000000000
0.103472307 0.069570059 0.099150354 0.001558399 -0.763673793 0.000048260 0.326598632 1.000000000
0.097027286 0.072702014 0.100880369 -0.001027325 -0.760913955 0.000151713 0.326598632 1.000000000
0.102851877 0.071336970 0.096641911 0.001992288 -0.762896621 -0.001124552 0.326598632 1.000000000
0.104423657 0.067687714 0.100303296 0.001755180 -0.768078137 0.000934447 0.326598632 1.000000000
0.094301452 0.075079097 0.094776201 -0.000375262 -0.759044486 -0.000053070 0.326598632 1.000000000
0.104928745 0.068085923 0.102333542 0.001519539 -0.765547122 0.000471593 0.326598632 1.000000000
0.098091061 0.068526970 0.099572863 0.000802278 -0.765267608 -0.000226871 0.326598632 1.000000000
0.105378109 0.068793408 0.095977191 0.001541705 -0.764836400 -0.002004215 0.326598632 1.000000000
0.101675436 0.073743394 0.099343262 0.000123876 -0.755805028 0.000494800 0.326598632 1.000000000
0.096809653 0.068481644 0.102117962 -0.000827054 -0.765552568 0.001053063 0.326598632 1.000000000
0.097151947 0.075199988 0.103441223 -0.000144540 -0.757108070 0.000293861 0.326598632 1.000000000
0.105807894 0.071214100 0.097259380 0.002793119 -0.759638004 0.000019641 0.326598632 1.000000000
0.104699065 0.070686088 0.097227160 0.001591394 -0.761160425 -0.000325628 0.326598632 1.000000000
0.101249142 0.067747198 0.094034135 0.000436996 -0.764701885 -0.001539427 0.326598632 1.000000000
0.099635730 0.069340312 0.104890163 -0.000161703 -0.762398632 0.002166468 0.326598632 0.999852687
0.101470794 0.071212256 0.099404900 0.000496174 -0.765219786 -0.001874982 0.326598632 1.000000000
0.099690194 0.071008326 0.099636187 -0.002354373 -0.765219709 -0.001638010 0.326598632 1.000000000
0.104250782 0.071725263 0.101090438 0.001872836 -0.762180370 -0.000119592 0.326598632 1.000000000
0.104127889 0.074099284 0.094593036 0.001720281 -0.757294239 -0.001679852 0.326598632 1.000000000
0.099262434 0.071131683 0.097417954 -0.000464954 -0.764656746 -0.001046801 0.326598632 1.000000000
0.094530047 0.070603422 0.096620240 -0.003973744 -0.763573737 -0.002001127 0.326598632 1.000000000
0.097414237 0.074079382 0.097334053 -0.004026922 -0.758010781 0.001508866 0.326598632 1.000000000
0.104559029 0.071796328 0.103818982 0.001491897 -0.762134622 0.001356371 0.326598632 0.999992171
0.102104366 0.067776770 0.100897272 -0.001311606 -0.768197837 0.000198480 0.326598632 1.000000000
0.105154012 0.071149751 0.094537229 0.001735677 -0.760486528 -0.002087692 0.326598632 1.000000000
0.102758595 0.070662402 0.095980611 0.000732401 -0.763145838 -0.002551530 0.326598632 1.000000000
0.097097726 0.072911835 0.104588045 -0.000404743 -0.760763234 0.001518830 0.326598632 1.000000000
0.102621295 0.069916451 0.102095154 0.001194549 -0.764664170 0.000513333 0.326598632 1.000000000
0.104354662 0.073314901 0.105449308 -0.000244982 -0.761673632 0.001605665 0.326598632 1.000000000
0.103955423 0.073286493 0.094024103 0.000801923 -0.758266041 -0.002266357 0.326598632 1.000000000
0.097080535 0.074520091 0.094485505 0.000008303 -0.756378624 -0.001943521 0.326598632 1.000000000
0.101952614 0.073948952 0.101983719 0.000710450 -0.757628962 0.000051563 0.326598632 1.000000000
0.100595107 0.072315000 0.095105151 0.000302372 -0.760312732 -0.003622752 0.326598632 1.000000000
0.097852251 0.070777720 0.104805432 -0.001130889 -0.762336033 0.002802017 0.326598632 1.000000000
0.101753142 0.070844690 0.102998226 0.000150334 -0.763041210 0.000466781 0.326598632 1.000000000
0.101185227 0.074651137 0.101757475 0.001348893 -0.756782665 -0.000006018 0.326598632 1.000000000
0.095387669 0.068652415 0.100024709 -0.002004826 -0.766157983 -0.001739236 0.326598632 1.000000000
0.101655006 0.068916866 0.095851019 0.001249361 -0.766039901 -0.003147772 0.326598632 1.000000000
0.103948925 0.071783840 0.102892035 0.001121082 -0.762283610 0.001031132 0.326598632 1.000000000
0.102338960 0.074105459 0.105895879 0.000808456 -0.759866942 0.001627548 0.326598632 1.000000000
0.095010903 0.071134641 0.100390121 -0.003825932 -0.761937686 0.000226480 0.326598632 1.000000000
0.103697689 0.074828640 0.098793696 0.002381012 -0.755353435 0.002104653 0.326598632 1.000000000
0.103802977 0.071277029 0.096592819 0.002297377 -0.761500024 -0.000087566 0.326598632 1.000000000
0.104222346 0.070643440 0.094807618 0.000686079 -0.761371046 -0.001921216 0.326598632 1.000000000
0.100509319 0.068161598 0.098846506 -0.004550775 -0.769039576 -0.001537134 0.326598632 1.000000000
0.096714832 0.072266583 0.104341534 -0.000697774 -0.761003426 0.001022453 0.326598632 1.000000000
0.100951461 0.071143509 0.098609156 0.000422890 -0.765133841 -0.002317549 0.326598632 1.000000000
0.104676227 0.068332849 0.103111984 0.001191453 -0.765546351 0.000574433 0.326598632 1.000000000
0.094327350 0.070500147 0.094145669 -0.003439343 -0.769200425 -0.004156776 0.326598632 1.000000000
0.100139617 0.071750132 0.098714426 -0.001159989 -0.763063879 -0.001607047 0.326598632 1.000000000
0.094536076 0.072711031 0.095986786 -0.002480939 -0.760073669 -0.001311209 0.326598632 1.000000000
0.098077216 0.075120070 0.103143277 0.000007812 -0.756992989 0.000529141 0.326598632 1.000000000
0.094076660 0.070574483 0.100206765 -0.007883956 -0.762808403 -0.000900212 0.326598632 1.000000000
0.101151798 0.073880230 0.098630505 0.000300167 -0.755205960 0.000597940 0.326598632 1.000000000
0.100372812 0.074324592 0.095214139 -0.000795574 -0.755373676 -0.001846237 0.326598632 1.000000000
0.100716493 0.072186196 0.104101382 0.000036161 -0.761242761 0.001584801 0.326598632 1.000000000
0.105665010 0.068882209 0.095262438 0.001593243 -0.764302359 -0.001833140 0.326598632 1.000000000
0.100382855 0.075367407 0.096741929 -0.000220728 -0.754613742 0.000454401 0.326598632 1.000000000
0.096505657 0.068336545 0.095628825 -0.001136820 -0.765451957 -0.001100039 0.326598632 1.000000000
0.098744729 0.070856635 0.105109660 -0.000583781 -0.762584766 0.003454633 0.326598632 1.000000000
0.099854335 0.068718487 0.097757621 -0.000399793 -0.766284534 -0.001077584 0.326598632 0.999965228
0.098444315 0.074229782 0.095559808 -0.001402712 -0.757198025 -0.002087629 0.326598632 1.000000000
0.099329040 0.071334959 0.098496743 -0.001490097 -0.764171548 -0.001051030 0.326598632 1.000000000
0.095058167 0.071906844 0.105939239 -0.000470223 -0.762349943 0.001644151 0.326598632 1.000000000
0.094369280 0.068756756 0.101282552 -0.003467314 -0.762089844 0.000418412 0.326598632 1.000000000
0.105763492 0.073732360 0.105649491 0.004946692 -0.763734417 0.001349755 0.326598632 1.000000000
0.096018361 0.071802289 0.099734227 -0.002831378 -0.761248601 -0.001018532 0.326598632 1.000000000
0.098273747 0.074254737 0.096963192 -0.001843600 -0.757351605 0.001349350 0.326598632 1.000000000
0.096125499 0.073217057 0.103922295 -0.000831779 -0.759633020 0.000718383 0.326598632 1.000000000
0.096819935 0.072963841 0.100089474 -0.001011867 -0.760535486 0.000209530 0.326598632 1.000000000
0.095982371 0.071902848 0.103968704 -0.001113452 -0.760938201 0.000848799 0.326598632 1.000000000
0.095806541 0.075545929 0.100996089 0.000385898 -0.754805918 0.000439171 0.326598632 1.000000000
0.103388962 0.069201528 0.103802176 0.001106706 -0.764273301 0.001654156 0.326598632 1.000000000
0.097909792 0.069947502 0.102816180 -0.000660380 -0.762752606 0.001721020 0.326598632 1.000000000
0.102770200 0.071235381 0.103510540 0.000531463 -0.762447076 0.000434411 0.326598632 1.000000000
0.102530896 0.074368142 0.095774969 0.000879212 -0.753814797 -0.001885051 0.326598632 1.000000000
0.101116050 0.068601643 0.104884278 0.000004089 -0.762860387 0.001503822 0.326598632 1.000000000
0.099501549 0.070370163 0.101190311 -0.000554035 -0.764782359 0.001255113 0.326598632 1.000000000
0.100591790 0.073513537 0.094454289 0.000031895 -0.756879927 -0.002881289 0.326598632 1.000000000
