ply
format ascii 1.0
element vertex 256
property float x
property float y
property float z
property float vx
property float vy
property float vz
property float alpha
property float det_fe
end_header
0.103356292 0.069015686 0.103558514 -0.000003656 -0.753652380 0.000001769 0.326598632 0.999949376
0.095199777 0.071114778 0.101162229 0.000512932 -0.754306509 0.000100166 0.326598632 1.000000000
0.095714625 0.070218007 0.099511013 0.000804317 -0.754456840 -0.000173698 0.326598632 1.000000000
0.102664016 0.067999273 0.101810650 0.000112500 -0.754912963 -0.000052217 0.326598632 1.000000000
0.105906539 0.067554313 0.105262632 -0.000000887 -0.754156019 -0.000005384 0.326598632 1.000000000
0.094084765 0.072441146 0.101409816 -0.000182188 -0.755167803 0.000247809 0.326598632 1.000000000
0.098798338 0.071746216 0.094276730 0.000025461 -0.755069692 -0.000078875 0.326598632 0.999993399
0.096793255 0.075337885 0.094559988 -0.000010747 -0.755589083 -0.000000262 0.326598632 0.999969071
0.098589527 0.072495206 0.095087243 -0.000078881 -0.754615951 -0.000135498 0.326598632 1.000000000
0.104319282 0.071282224 0.105798780 -0.000017268 -0.755069178 0.000060594 0.326598632 0.999998180
0.094159102 0.071151895 0.102163804 -0.000510175 -0.755309348 0.000752168 0.326598632 1.000000000
0.098625276 0.072054610 0.105306576 0.001037504 -0.754373126 0.000564055 0.326598632 1.000000000
0.096892258 0.069395145 0.094191488 -0.000159726 -0.755052918 -0.000369415 0.326598632 1.000000000
0.103998332 0.072428137 0.102199147 -0.000048605 -0.754758274 -0.000121053 0.326598632 1.000000000
0.096186750 0.070676541 0.096080431 -0.000364289 -0.754837672 0.000080603 0.326598632 1.000000000
0.096495256 0.070949380 0.103064291 -0.000145127 -0.754285545 -0.000075651 0.326598632 1.000000000
0.104107413 0.067798490 0.100812408 -0.000021438 -0.755365418 0.000020786 0.326598632 1.000000000
0.105119956 0.070709723 0.099396904 0.000097090 -0.753431521 -0.000513665 0.326598632 1.000000000
0.100845337 0.070160474 0.102727291 0.000068721 -0.754860218 0.000123269 0.326598632 1.000000000
0.104134380 0.075237710 0.100250006 -0.000123649 -0.753682086 0.000065379 0.326598632 0.999902726
0.101041023 0.071865778 0.102967915 0.000095774 -0.753559828 0.000316941 0.326598632 1.000000000
0.097311882 0.072404445 0.105583165 -0.000363403 -0.754325514 0.000462487 0.326598632 1.000000000
0.094187461 0.068870120 0.097555350 -0.001113865 -0.755265452 0.000489566 0.326598632 1.000000000
0.097521879 0.070707382 0.099080903 0.000064750 -0.754075134 0.000406563 0.326598632 1.000000000
0.102536205 0.069138923 0.094168844 0.000664056 -0.754187418 -0.000744453 0.326598632 1.000000000
0.105115597 0.072395976 0.103482078 -0.000097437 -0.753653914 -0.000201911 0.326598632 1.000000000
0.104200455 0.074868256 0.101812810 0.000067682 -0.753347262 -0.000318410 0.326598632 1.000000000
0.098449815 0.068311344 0.099393410 -0.000042135 -0.754933852 0.000010650 0.326598632 1.000000000
0.101095630 0.072875704 0.102026199 0.000376254 -0.753523760 0.000725266 0.326598632 1.000000000
0.098595124 0.072038401 0.097296725 -0.000096196 -0.753511375 0.000043449 0.326598632 1.000000000
0.102660830 0.074339704 0.105660644 0.000143308 -0.753524741 0.000260962 0.326598632 1.000000000
0.094485077 0.069596828 0.096831729 -0.000816882 -0.753645360 -0.000587035 0.326598632 1.000000000
0.099272146 0.068435450 0.102527945 0.000303261 -0.754594483 0.000009116 0.326598632 1.000000000
0.099704396 0.074714199 0.096420674 -0.000312365 -0.754429041 0.000287394 0.326598632 1.000000000
0.095671954 0.073112148 0.100759321 -0.000117893 -0.754917796 0.000033543 0.326598632 0.999908611
0.096436815 0.071866817 0.101253012 0.000495401 -0.754390643 0.000013363 0.326598632 1.000000000
0.102337443 0.072338865 0.105314218 0.000210367 -0.755232977 -0.000106312 0.326598632 1.000000000
0.097547540 0.072543092 0.104565527 -0.000175257 -0.753831506 -0.000381016 0.326598632 1.000000000
0.096621337 0.071200540 0.095265923 0.000139027 -0.754231943 -0.000024454 0.326598632 1.000000000
0.097892258 0.074614784 0.098998167 0.000381269 -0.753414547 0.000182291 0.326598632 1.000000000
0.104881940 0.070398546 0.095464950 -0.000025597 -0.754393868 -0.000415068 0.326598632 1.000000000
0.094006193 0.072729611 0.097265576 -0.000302980 -0.754412175 -0.000072272 0.326598632 0.999935756
0.095975879 0.069986402 0.098230781 -0.000053552 -0.754366495 0.000200600 0.326598632 1.000000000
0.102309316 0.071427057 0.100408961 0.000180545 -0.753793185 -0.000155574 0.326598632 1.000000000
0.096019494 0.069501142 0.097232950 0.000045666 -0.754432378 0.000065289 0.326598632 1.000000000
0.098846058 0.072013160 0.096624995 -0.000264116 -0.753879320 -0.000521987 0.326598632 1.000000000
0.096962457 0.069579347 0.094778660 -0.000188693 -0.755056319 -0.000200988 0.326598632 1.000000000
0.095777040 0.073246100 0.102355672 -0.000024541 -0.755076668 0.000104274 0.326598632 1.000000000
0.105719387 0.069682116 0.105972913 0.000051976 -0.755531171 0.000182568 0.326598632 1.000000000
0.098140856 0.067812382 0.098932442 0.000000429 -0.755257752 -0.000011251 0.326598632 1.000000000
0.100371147 0.072994053 0.101612300 -0.000438526 -0.753154300 0.000561973 0.326598632 1.000000000
0.101112312 0.071971509 0.099373357 -0.000243558 -0.753637550 -0.000140417 0.326598632 0.999870972
0.096906001 0.070505259 0.094970171 0.000219666 -0.755131172 -0.000239429 0.326598632 1.000000000
0.105801153 0.071310765 0.103637641 0.000504047 -0.753688348 -0.000242503 0.326598632 1.000000000
0.103580137 0.074079669 0.098785758 -0.000082261 -0.754103692 -0.000823865 0.326598632 1.000000000
0.102349775 0.071614330 0.095808200 0.000247600 -0.752980568 -0.001452849 0.326598632 1.000000000
0.096642705 0.070155914 0.104300347 -0.000588504 -0.754206756 0.000491746 0.326598632 1.000000000
0.098183966 0.074024370 0.102533750 -0.000175588 -0.754023974 -0.000295412 0.326598632 1.000000000
0.098770821 0.075072248 0.095154118 -0.000290753 -0.754364319 -0.000007328 0.326598632 1.000000000
0.102108353 0.074250208 0.100212891 0.000380541 -0.752491531 -0.000497670 0.326598632 1.000000000
0.100497402 0.069220963 0.102822635 0.000102507 -0.754171443 0.000160769 0.326598632 1.000000000
0.096099286 0.069377038 0.102349316 -0.001046105 -0.751497409 -0.000646411 0.326598632 1.000000000
0.097129817 0.071681004 0.105786141 -0.000488024 -0.755386786 0.000485419 0.326598632 1.000000000
0.100699498 0.075271514 0.105955063 -0.000091841 -0.753673760 0.000058642 0.326598632 1.000000000
0.097346566 0.069170624 0.104591713 0.000222394 -0.754008803 0.000356975 0.326598632 1.000000000
0.104275996 0.074434256 0.102404470 0.000509458 -0.754334490 0.000452328 0.326598632 1.000000000
0.104211125 0.074763308 0.098854013 -0.000118198 -0.753675575 -0.000460449 0.326598632 1.000000000
0.102027754 0.073943649 0.105227524 -0.000313680 -0.754480759 -0.000286678 0.326598632 1.000000000
0.105281614 0.070639594 0.100968317 0.000041385 -0.753449687 0.000322767 0.326598632 1.000000000
0.097664395 0.069932250 0.105684148 0.000084960 -0.755322293 0.000666656 0.326598632 1.000000000
0.105933544 0.071248577 0.099827341 0.000186752 -0.754050762 -0.000102092 0.326598632 1.000000000
0.099926723 0.067805800 0.096111108 -0.000001434 -0.754292045 0.000017536 0.326598632 1.000000000
0.102930199 0.070592475 0.096145971 0.000528148 -0.755684299 0.000342882 0.326598632 1.000000000
0.100510456 0.070125423 0.102651288 -0.000118243 -0.754775617 0.000033512 0.326598632 1.000000000
0.097005528 0.072751672 0.100105810 -0.000052759 -0.754727726 0.000130619 0.326598632 1.000000000
0.099840858 0.075492518 0.101078453 -0.000322300 -0.753315637 0.000015013 0.326598632 1.000000000
0.098201061 0.071135630 0.104872934 0.000515205 -0.756595515 -0.000853878 0.326598632 1.000000000
0.104370082 0.073012293 0.101741278 0.000437336 -0.755081465 0.000131239 0.326598632 1.000000000
0.100864020 0.071655224 0.096762108 0.000002538 -0.751528033 -0.000755232 0.326598632 1.000000000
0.105934606 0.068010103 0.103222648 0.000000016 -0.754000533 0.000001242 0.326598632 1.000000000
0.104601775 0.069897491 0.099639289 -0.000535466 -0.754352986 -0.000320312 0.326598632 1.000000000
0.097968975 0.075285815 0.102972618 -0.000193327 -0.753829648 -0.000048071 0.326598632 0.999955963
0.105763997 0.072239517 0.100633175 0.000118397 -0.754417573 -0.000020676 0.326598632 0.999868896
0.096290800 0.070106242 0.094904092 -0.000376273 -0.755460751 -0.000210159 0.326598632 1.000000000
0.098472121 0.071542957 0.097221817 -0.000338566 -0.754487371 0.000296324 0.326598632 1.000000000
0.105160255 0.074414986 0.098736209 0.000343625 -0.753899871 -0.000574445 0.326598632 1.000000000
0.102053799 0.069332592 0.094845041 0.000500487 -0.753315701 0.000337198 0.326598632 1.000000000
0.097543517 0.069694305 0.098303797 0.000089265 -0.754774676 0.000446402 0.326598632 1.000000000
0.095639415 0.074450573 0.097870598 -0.000150361 -0.754184571 -0.000060100 0.326598632 1.000000000
0.097558140 0.072083654 0.102506915 0.000122557 -0.754523640 -0.000096141 0.326598632 0.999827058
0.101338184 0.069711031 0.099037360 0.000117478 -0.753129635 -0.000051192 0.326598632 1.000000000
0.101534715 0.067702802 0.094979147 -0.000114183 -0.753508270 0.000080382 0.326598632 1.000000000
0.098761453 0.068228593 0.096331308 0.000191607 -0.754974988 0.000024331 0.326598632 0.999917241
0.094331400 0.074754108 0.094609222 -0.000004486 -0.754414957 -0.000001295 0.326598632 1.000000000
0.102064284 0.071168910 0.100946425 -0.000052571 -0.753742559 0.000040519 0.326598632 1.000000000
0.105782137 0.068901542 0.097937856 0.000267860 -0.754257554 0.000171681 0.326598632 1.000000000
0.097003001 0.074544473 0.104067207 -0.000098138 -0.754079849 0.000030860 0.326598632 0.999968678
0.100444965 0.070087491 0.094465992 -0.000130817 -0.753159481 -0.000150961 0.326598632 0.999982975
0.097258524 0.074284155 0.097919678 0.000083026 -0.754169082 -0.000467282 0.326598632 1.000000000
0.104104273 0.071319019 0.105583029 -0.000027045 -0.754965860 0.000049353 0.326598632 0.999966851
0.102394178 0.070951655 0.096332655 0.000401409 -0.755383441 0.000176831 0.326598632 1.000000000
0.105634462 0.068723223 0.095660247 0.000083951 -0.754132385 -0.000010694 0.326598632 1.000000000
0.098785723 0.067989009 0.102575140 -0.000061517 -0.756579692 -0.000113526 0.326598632 1.000000000
0.097010226 0.073613511 0.099202286 -0.000369704 -0.754332112 0.000079006 0.326598632 1.000000000
0.099139817 0.068308115 0.096212002 0.000185059 -0.754641085 -0.000052006 0.326598632 0.999933968
0.104982569 0.068126795 0.102262006 0.000024512 -0.753906408 0.000052098 0.326598632 1.000000000
0.095126217 0.069578675 0.099308205 -0.000751971 -0.756915104 -0.000154385 0.326598632 1.000000000
0.101659266 0.075138268 0.096194378 0.000127311 -0.753559806 -0.000092639 0.326598632 1.000000000
0.099228064 0.072918259 0.100200323 -0.000081017 -0.753128299 -0.000226534 0.326598632 1.000000000
0.100792611 0.068042276 0.102760476 0.000586498 -0.756489466 0.000038853 0.326598632 1.000000000
0.098102589 0.068622366 0.095903751 0.000166411 -0.755281599 -0.000274936 0.326598632 1.000000000
0.097736983 0.068414164 0.095101551 0.000089294 -0.755273264 -0.000110030 0.326598632 1.000000000
0.094205932 0.069063816 0.105754128 -0.000006228 -0.754418815 0.000005655 0.326598632 1.000000000
0.098155621 0.074116454 0.103160416 -0.000206023 -0.754178887 0.000283570 0.326598632 1.000000000
0.094576695 0.072859288 0.099576068 -0.000055352 -0.754546025 -0.000090520 0.326598632 1.000000000
0.097130721 0.074754773 0.105389750 -0.000019097 -0.753847324 0.000005959 0.326598632 1.000000000
0.100012477 0.075128677 0.094183624 -0.000010019 -0.754137385 -0.000202295 0.326598632 1.000000000
0.101390238 0.073132731 0.100472511 0.000357050 -0.754424437 -0.000221023 0.326598632 1.000000000
0.104406446 0.075215230 0.105326700 0.000304459 -0.754129921 -0.000000430 0.326598632 1.000000000
0.102126032 0.074068859 0.101636939 0.000134330 -0.753378156 0.000426273 0.326598632 0.999943043
0.103734422 0.068689031 0.100880428 -0.000122244 -0.754437546 0.000084209 0.326598632 1.000000000
0.103845098 0.072668774 0.103847706 -0.000164650 -0.753843925 0.000207941 0.326598632 1.000000000
0.097287609 0.069314810 0.101817603 0.000502913 -0.753330763 -0.001335956 0.326598632 1.000000000
0.094467540 0.070679185 0.096575041 -0.000067432 -0.754395436 -0.000200970 0.326598632 1.000000000
0.101868613 0.070353377 0.101419117 -0.000199531 -0.754665496 0.000104850 0.326598632 1.000000000
0.098087505 0.073114155 0.098624740 0.000011658 -0.753868086 -0.000095833 0.326598632 0.999922745
0.102314806 0.071629617 0.097128379 0.000792372 -0.753697556 -0.000084742 0.326598632 1.000000000
0.094470211 0.075154384 0.098180037 -0.000164136 -0.754258994 -0.000012693 0.326598632 0.999973060
0.100575654 0.075515009 0.099015337 -0.000037512 -0.752776434 -0.000068419 0.326598632 1.000000000
0.100911082 0.072322293 0.099081631 -0.000070127 -0.753229602 -0.000116149 0.326598632 0.999894931
0.097000309 0.068795703 0.102779764 0.000738701 -0.753306241 -0.000030540 0.326598632 1.000000000
0.100742422 0.074711121 0.100966536 0.000278168 -0.753465814 0.000035007 0.326598632 0.999759497
0.102878917 0.073213161 0.096863106 0.000046435 -0.752617562 -0.000307799 0.326598632 1.000000000
0.100411740 0.070795720 0.096858817 -0.001326818 -0.755324382 -0.000174682 0.326598632 1.000000000
0.097571649 0.070891170 0.099958815 0.000105958 -0.753209593 0.000223784 0.326598632 1.000000000
0.105502508 0.068201973 0.095199786 0.000035869 -0.753787154 -0.000110823 0.326598632 1.000000000
0.105481602 0.070613294 0.104165775 -0.000055749 -0.754187312 0.000384173 0.326598632 1.000000000
0.099916254 0.071634325 0.102121232 -0.000271814 -0.753551815 0.000003265 0.326598632 1.000000000
0.101229227 0.068507789 0.094999427 -0.000435871 -0.753557888 0.000114884 0.326598632 0.999975917
0.105354435 0.069475830 0.100644561 0.000561197 -0.754294501 0.000551152 0.326598632 1.000000000
0.105171149 0.068681972 0.103375551 -0.000011823 -0.752999391 -0.000009836 0.326598632 1.000000000
0.094670454 0.075741788 0.105690979 0.000000000 -0.752942891 -0.000000000 0.326598632 1.000000000
0.102469983 0.072141665 0.102844435 -0.000080871 -0.752544458 0.000026845 0.326598632 1.000000000
0.104043590 0.073278470 0.105623827 0.000095963 -0.753341404 0.000048920 0.326598632 1.000000000
0.099113106 0.074482109 0.104402441 0.000066241 -0.753267562 0.000121840 0.326598632 1.000000000
0.104702800 0.070947586 0.096670938 0.000126196 -0.752518832 -0.000004217 0.326598632 1.000000000
0.096798780 0.071880897 0.095759300 0.000112839 -0.752998442 0.000111055 0.326598632 1.000000000
0.104564423 0.074679209 0.100975564 0.000423244 -0.753567856 -0.000255599 0.326598632 1.000000000
0.101102684 0.075035648 0.096840258 0.000124895 -0.753891075 0.000239680 0.326598632 1.000000000
0.099780070 0.073439842 0.098202636 0.000365921 -0.752547471 0.000113743 0.326598632 1.000000000
0.096984597 0.073414580 0.098535768 -0.000327403 -0.754408357 -0.000255550 0.326598632 1.000000000
0.097044065 0.071249827 0.097963051 -0.000523025 -0.753244431 0.000047575 0.326598632 1.000000000
0.102891705 0.072346078 0.098862305 0.000076825 -0.753050029 -0.000712602 0.326598632 1.000000000
0.102930458 0.074356639 0.103206402 -0.000385107 -0.752765436 0.000297397 0.326598632 1.000000000
0.098802697 0.069674458 0.102172435 0.000093373 -0.752647616 -0.000166787 0.326598632 1.000000000
0.100340438 0.068437335 0.099732621 0.000006189 -0.753588722 0.000272539 0.326598632 1.000000000
0.105734906 0.074190989 0.099236080 0.000645947 -0.753963033 0.000343372 0.326598632 1.000000000
0.094520592 0.070355279 0.100672004 -0.001312899 -0.755910840 -0.000610702 0.326598632 1.000000000
0.097035881 0.075127052 0.105095720 -0.000009170 -0.753653801 0.000000081 0.326598632 1.000000000
0.095994381 0.068377129 0.102344836 -0.001377460 -0.756933438 -0.000624504 0.326598632 1.000000000
0.105950016 0.070130267 0.096601727 0.000201260 -0.752950113 0.000026607 0.326598632 1.000000000
0.102845259 0.070847880 0.102363165 0.000232138 -0.753018399 0.000257823 0.326598632 1.000000000
0.094694367 0.075443957 0.104983052 -0.000000008 -0.752944179 0.000000122 0.326598632 1.000000000
0.098027963 0.068627885 0.098734260 0.000155033 -0.754685814 0.000029727 0.326598632 1.000000000
0.098659230 0.072949111 0.096036053 -0.000014717 -0.752841081 -0.000329004 0.326598632 1.000000000
0.098324208 0.069901720 0.096752728 0.000478130 -0.753132101 -0.000042782 0.326598632 1.000000000
0.094387789 0.071400050 0.097119389 -0.000038761 -0.753524217 -0.000061161 0.326598632 1.000000000
0.101233549 0.071063710 0.097357284 0.001243915 -0.754154940 0.000638826 0.326598632 1.000000000
0.094914550 0.068839003 0.097251464 0.000991502 -0.756857176 -0.000168302 0.326598632 1.000000000
0.100973926 0.071107318 0.105286382 -0.000202833 -0.753654447 0.000003902 0.326598632 1.000000000
0.104519943 0.068436268 0.105030114 0.000029640 -0.753035442 -0.000035577 0.326598632 0.999958221
0.098935054 0.069092922 0.100619006 -0.000070976 -0.753299537 -0.000191602 0.326598632 0.999999609
0.105823501 0.071616949 0.103331162 0.000455359 -0.753890568 -0.000435315 0.326598632 1.000000000
0.098715939 0.073770778 0.098520830 0.000167809 -0.753412186 -0.000107787 0.326598632 1.000000000
0.094762132 0.072326950 0.103949982 -0.000057660 -0.753093288 0.000078605 0.326598632 1.000000000
0.094164041 0.068845155 0.094441853 -0.000144237 -0.752909964 -0.000059423 0.326598632 1.000000000
0.100412172 0.073307909 0.094904248 0.000118759 -0.753806606 -0.000390417 0.326598632 1.000000000
0.101021791 0.075079718 0.102998938 -0.000019988 -0.752519967 0.000065052 0.326598632 0.999938970
0.098534277 0.073830555 0.102713459 0.000472619 -0.754565439 0.000061797 0.326598632 1.000000000
0.097017292 0.069414250 0.096892945 -0.000068569 -0.755087534 -0.000457172 0.326598632 1.000000000
0.104538595 0.069432063 0.097296814 -0.000322103 -0.753331410 0.000169496 0.326598632 1.000000000
0.097224119 0.068149021 0.103084071 0.000521510 -0.755661124 0.000541465 0.326598632 1.000000000
0.099714544 0.071759396 0.094266198 0.000055013 -0.753928357 -0.000105984 0.326598632 0.999979688
0.103796586 0.070236403 0.103976471 -0.000283474 -0.753592042 0.000071136 0.326598632 0.999877805
0.103501804 0.068481579 0.105615697 -0.000065479 -0.753049718 0.000072617 0.326598632 1.000000000
0.099046400 0.071614611 0.101079432 -0.000191361 -0.753398411 -0.000260130 0.326598632 1.000000000
0.103660522 0.072888981 0.103416041 -0.000079217 -0.753533408 0.000065119 0.326598632 1.000000000
0.105765562 0.072712439 0.104837828 0.000064878 -0.752731938 0.000098345 0.326598632 0.999946356
0.100657737 0.072867047 0.101297065 -0.000295491 -0.754447669 0.000082532 0.326598632 1.000000000
0.100569405 0.073585471 0.095092042 0.000331286 -0.753078549 0.000117910 0.326598632 1.000000000
0.097575553 0.075058218 0.099411071 0.000170031 -0.752515937 0.000433599 0.326598632 1.000000000
0.103557708 0.073355398 0.100283281 0.000190508 -0.752817619 0.000331727 0.326598632 1.000000000
0.103226926 0.074623914 0.099512184 -0.000580896 -0.752117643 0.000146413 0.326598632 1.000000000
0.101449614 0.068253866 0.094794835 -0.000363496 -0.753492994 0.000020795 0.326598632 0.999935590
0.100955808 0.069560151 0.098168974 0.000056352 -0.752636092 0.000087830 0.326598632 0.999754983
0.099521416 0.072185273 0.098098784 -0.000090717 -0.752231499 0.000169258 0.326598632 0.999795433
0.102372035 0.071089357 0.101017201 0.000162608 -0.753643983 0.000049054 0.326598632 1.000000000
0.098939935 0.073459128 0.096160791 0.000005097 -0.752557180 -0.000110761 0.326598632 0.999918698
0.105677357 0.072009034 0.104491875 0.000215216 -0.752365779 0.000424503 0.326598632 0.999892901
0.103861468 0.069677929 0.101223243 -0.000131608 -0.752424596 0.000119554 0.326598632 1.000000000
0.094381639 0.070668131 0.098141037 -0.000116675 -0.752149061 0.000303993 0.326598632 0.999861288
0.098271873 0.072162551 0.100584566 -0.000162319 -0.752247733 -0.000114815 0.326598632 0.999980015
0.097961273 0.068916998 0.104730641 0.000528249 -0.753258605 0.000227927 0.326598632 0.999904077
0.099773749 0.068625518 0.097858980 0.000031693 -0.752046983 -0.000089148 0.326598632 0.999881875
0.095883723 0.071980401 0.102253450 -0.000062212 -0.752366403 0.000224059 0.326598632 0.999638794
0.104419609 0.067907981 0.098527450 -0.000027069 -0.751859884 0.000122936 0.326598632 0.999833337
0.105835084 0.072665504 0.095014204 0.000000871 -0.751472427 -0.000000528 0.326598632 1.000000000
0.096833392 0.075279590 0.100439103 -0.000045747 -0.751625426 0.000099975 0.326598632 1.000000000
0.102646185 0.072137243 0.103119486 -0.000054183 -0.752556379 0.000138201 0.326598632 1.000000000
0.095597388 0.069069027 0.094748097 -0.000099238 -0.752574936 0.000004610 0.326598632 0.999730145
0.102995373 0.074642656 0.102245952 -0.000145564 -0.752460393 -0.000227489 0.326598632 1.000000000
0.098249744 0.074824815 0.094365649 -0.000103855 -0.752699273 -0.000110013 0.326598632 0.999934606
0.102848858 0.068726190 0.098765969 -0.000029882 -0.751753382 0.000023197 0.326598632 0.999876046
0.104088537 0.072398977 0.096187397 0.000116443 -0.751622320 -0.000066306 0.326598632 0.999990854
0.096798611 0.072169839 0.095070447 0.000093785 -0.752303599 -0.000030712 0.326598632 1.000000000
0.098261272 0.071678808 0.098115186 0.000135959 -0.753010159 0.000426594 0.326598632 1.000000000
0.101010429 0.071723602 0.101785840 0.000234393 -0.753699502 -0.000224791 0.326598632 0.999834047
0.101038439 0.072348989 0.102841925 0.000093273 -0.752995358 0.000368148 0.326598632 1.000000000
0.098049340 0.070917298 0.100773498 -0.000145591 -0.752551692 -0.000032595 0.326598632 0.999936680
0.096932165 0.072747491 0.104795753 -0.000487425 -0.753003135 -0.000107635 0.326598632 1.000000000
0.105204311 0.070529806 0.099978946 0.000058451 -0.753210627 -0.000173467 0.326598632 1.000000000
0.098384298 0.069689861 0.094090390 0.000105587 -0.752007956 -0.000152490 0.326598632 0.999940231
0.095054649 0.074693766 0.099853723 -0.000019082 -0.751828617 0.000036118 0.326598632 1.000000000
0.104107771 0.068332348 0.103670376 0.000017001 -0.752533852 -0.000017814 0.326598632 0.999876588
0.102363526 0.068032969 0.094619642 -0.000074139 -0.753138630 0.000108720 0.326598632 0.999824133
0.100911979 0.075059851 0.105967079 -0.000009950 -0.753543673 0.000082299 0.326598632 1.000000000
0.105700805 0.067929399 0.105008744 -0.000007178 -0.753341205 -0.000023895 0.326598632 1.000000000
0.103850414 0.073670314 0.099889004 0.000506041 -0.752364895 0.000126079 0.326598632 1.000000000
0.099719412 0.072167435 0.102621561 -0.000147093 -0.752391121 0.000492966 0.326598632 1.000000000
0.105615923 0.069527609 0.104063000 -0.000037581 -0.753409903 0.000059228 0.326598632 0.999968648
0.102834983 0.069483173 0.102531445 0.000113356 -0.752549500 0.000102586 0.326598632 1.000000000
0.103213264 0.073545022 0.100358134 -0.000601968 -0.752127091 0.000358420 0.326598632 1.000000000
0.105184180 0.071936099 0.095047474 0.000055516 -0.751550538 -0.000052484 0.326598632 1.000000000
0.098430766 0.072638189 0.097847698 0.000001531 -0.752502090 -0.000055116 0.326598632 1.000000000
0.100587044 0.072275827 0.099451184 -0.000129589 -0.753321595 -0.000209605 0.326598632 0.999881646
0.095054416 0.073363781 0.096420757 -0.000010041 -0.751941658 -0.000059925 0.326598632 0.999992432
0.095400368 0.067908881 0.095665849 0.000103109 -0.752043692 -0.000323217 0.326598632 0.999721349
0.103531547 0.072735792 0.099678008 0.000490788 -0.753488934 0.000090293 0.326598632 1.000000000
0.102951706 0.074693074 0.095280385 0.000079384 -0.751639762 -0.000042887 0.326598632 0.999982352
0.105891151 0.075350749 0.098902200 -0.000019993 -0.751705296 -0.000131010 0.326598632 1.000000000
0.105117403 0.070920971 0.096460025 0.000069139 -0.752382341 0.000021321 0.326598632 1.000000000
0.103378179 0.068271852 0.102659157 0.000034375 -0.752698221 -0.000013035 0.326598632 0.999991977
0.103594458 0.073891139 0.103935324 0.000084099 -0.752509416 0.000222059 0.326598632 1.000000000
0.096828291 0.069378329 0.103901673 -0.000067303 -0.752736815 0.000540926 0.326598632 1.000000000
0.097794326 0.075150153 0.101605081 -0.000217917 -0.751838177 -0.000147048 0.326598632 0.999925593
0.099423321 0.073351040 0.101059687 -0.000416154 -0.752110988 0.000043712 0.326598632 1.000000000
0.101489203 0.075084506 0.102565395 -0.000101936 -0.752222133 0.000038974 0.326598632 1.000000000
0.100929786 0.071396960 0.100477339 -0.000330282 -0.753319411 -0.000227519 0.326598632 0.999618838
0.100382207 0.071019016 0.098264485 -0.000554167 -0.752275031 0.000906104 0.326598632 0.999949411
0.100514157 0.069719268 0.094799421 -0.000233560 -0.752901175 -0.000053166 0.326598632 0.999932449
0.102766599 0.070549663 0.099178339 0.000062941 -0.752424418 0.000009913 0.326598632 0.999772693
0.104543550 0.069221005 0.102324621 0.000004675 -0.752274847 0.000067077 0.326598632 1.000000000
0.100877800 0.073818941 0.099945002 -0.000066996 -0.751642123 -0.000540883 0.326598632 1.000000000
0.102483756 0.073906230 0.105972354 -0.000064512 -0.753299701 0.000282764 0.326598632 1.000000000
0.096454439 0.069032208 0.103343037 -0.000637549 -0.752102987 0.001157670 0.326598632 1.000000000
0.103055639 0.071838950 0.102568771 0.000101806 -0.752678899 0.000013198 0.326598632 1.000000000
