ply
format ascii 1.0
element vertex 488
property float x
property float y
property float z
property float vx
property float vy
property float vz
property float alpha
property float det_fe
end_header
0.102483772 0.072997316 0.105973216 -0.000068180 -0.760391263 0.001551685 0.326598632 1.000000000
0.096454058 0.068121592 0.103343579 -0.000285898 -0.761817738 0.001027743 0.326598632 1.000000000
0.103055951 0.070929457 0.102569190 -0.000113390 -0.759830140 -0.000608586 0.326598632 0.999775992
0.098545469 0.071383155 0.095233739 -0.000104535 -0.760098020 -0.001590360 0.326598632 1.000000000
0.100027122 0.071924047 0.099483434 -0.000346315 -0.758680821 0.000988290 0.326598632 0.999525246
0.098907776 0.070983168 0.100477859 0.003565968 -0.759425671 -0.000990028 0.326598632 1.000000000
0.101181604 0.067186826 0.103262634 0.000210936 -0.764707352 0.000103062 0.326598632 1.000000000
0.101188361 0.072822500 0.100786575 0.000963767 -0.758868866 -0.000433993 0.326598632 1.000000000
0.098110508 0.074766689 0.103922105 -0.000339524 -0.753999550 0.001198106 0.326598632 1.000000000
0.097454019 0.070481131 0.096727448 -0.000789784 -0.759617973 -0.005245648 0.326598632 0.999674830
0.095669660 0.074390100 0.101380424 0.000649667 -0.754694828 0.002081315 0.326598632 1.000000000
0.102713226 0.069139795 0.095208777 0.000507776 -0.760016642 -0.001730482 0.326598632 1.000000000
0.105025409 0.067908339 0.101116153 0.000361806 -0.761176899 0.000400483 0.326598632 1.000000000
0.101817166 0.067274209 0.103481105 0.000978778 -0.764135979 0.000046783 0.326598632 1.000000000
0.094824641 0.070086715 0.103257766 -0.003228848 -0.760919369 0.006808076 0.326598632 1.000000000
0.104085278 0.067923249 0.094926560 0.000445318 -0.763966920 -0.001141851 0.326598632 1.000000000
0.096830337 0.068071129 0.104929475 -0.000746931 -0.764333334 0.001352822 0.326598632 1.000000000
0.104050390 0.068580988 0.095986194 0.001250171 -0.762057779 -0.001003977 0.326598632 1.000000000
0.096727773 0.069582007 0.097984817 -0.003381253 -0.762635992 -0.002657345 0.326598632 1.000000000
0.102931691 0.070124799 0.101294893 0.002105306 -0.759688891 -0.000372175 0.326598632 1.000000000
0.101245402 0.073393568 0.096467246 0.002519069 -0.760080838 0.001292904 0.326598632 1.000000000
0.104362442 0.070408991 0.095371025 0.000947420 -0.759019233 -0.000753980 0.326598632 1.000000000
0.099770342 0.070818372 0.105076923 0.000936195 -0.758549237 0.002593284 0.326598632 1.000000000
0.094392710 0.071788843 0.105022452 -0.001861568 -0.760375649 -0.000303348 0.326598632 1.000000000
0.100931744 0.069078189 0.104953500 -0.000535294 -0.760261461 0.002048367 0.326598632 1.000000000
0.097734383 0.067354816 0.095984982 -0.002722093 -0.768559646 -0.001470920 0.326598632 1.000000000
0.096641582 0.069311518 0.103367196 0.000904115 -0.760713472 0.002866304 0.326598632 1.000000000
0.105706831 0.071214799 0.096552233 0.000500032 -0.757285816 0.000027912 0.326598632 1.000000000
0.104330026 0.071549411 0.099506155 0.002929052 -0.758487575 0.000641918 0.326598632 1.000000000
0.097593939 0.068566147 0.100420981 -0.000799695 -0.760939885 0.000947762 0.326598632 1.000000000
0.099122158 0.070269199 0.097719208 0.001783800 -0.761854465 -0.003981164 0.326598632 1.000000000
0.099617556 0.069886177 0.103599653 -0.000804181 -0.760207268 0.002475488 0.326598632 1.000000000
0.104039198 0.070112926 0.101500383 0.001045249 -0.761417632 -0.000132621 0.326598632 0.999819248
0.102569773 0.069441178 0.101048896 0.003636535 -0.763040675 -0.001792390 0.326598632 1.000000000
0.099772825 0.071367680 0.100331055 0.000669706 -0.759521215 -0.000586280 0.326598632 0.999945373
0.095234936 0.073217042 0.099964344 -0.001737207 -0.758693180 0.000370992 0.326598632 1.000000000
0.103039623 0.067694074 0.098010720 0.001506993 -0.763775676 -0.001310643 0.326598632 1.000000000
0.100318387 0.074272728 0.097268520 -0.003112029 -0.756095633 0.002908877 0.326598632 1.000000000
0.104077485 0.074925540 0.103609394 0.000074615 -0.757838250 0.000632961 0.326598632 1.000000000
0.100620995 0.070356383 0.104404658 0.000279710 -0.759572712 0.001570346 0.326598632 1.000000000
0.100066637 0.068659944 0.097044909 0.001369461 -0.762381892 -0.000804654 0.326598632 0.999942232
0.100832834 0.069803711 0.101141315 -0.002030657 -0.759542385 0.001462480 0.326598632 1.000000000
0.102649694 0.071544507 0.104649897 0.000050692 -0.760934259 0.000801230 0.326598632 1.000000000
0.101238044 0.075004846 0.103664352 -0.000381779 -0.755235187 0.000983157 0.326598632 1.000000000
0.105334541 0.074794519 0.103682675 0.002117124 -0.758049998 0.000845174 0.326598632 1.000000000
0.097888208 0.070343014 0.095691650 0.000533703 -0.759995801 -0.002481561 0.326598632 1.000000000
0.102831110 0.072159612 0.095042581 0.000885874 -0.758958413 -0.001233094 0.326598632 1.000000000
0.104517465 0.068072999 0.104177899 0.000123793 -0.761093847 0.000273576 0.326598632 1.000000000
0.104929174 0.072722521 0.101715321 0.001517177 -0.759273153 0.000318508 0.326598632 1.000000000
0.103901684 0.069777836 0.101497554 0.001276295 -0.761515173 -0.000037881 0.326598632 0.999805799
0.103968522 0.067364345 0.098356146 0.001740905 -0.764092964 -0.000582329 0.326598632 1.000000000
0.098353201 0.073283168 0.098141971 0.000539749 -0.758720639 -0.000332618 0.326598632 0.999982143
0.105695437 0.068845835 0.104332993 0.000738342 -0.762473742 0.000046910 0.326598632 1.000000000
0.100789117 0.068004454 0.103357172 -0.000268507 -0.762657681 0.000088865 0.326598632 1.000000000
0.096184246 0.070858557 0.105825765 -0.000960197 -0.763165783 0.002038716 0.326598632 1.000000000
0.102900434 0.071190264 0.099817113 0.000403688 -0.759351293 0.001474704 0.326598632 1.000000000
0.096617073 0.070311431 0.102387532 0.000266270 -0.760770636 0.003654044 0.326598632 1.000000000
0.095585760 0.070464630 0.101740772 -0.003977707 -0.760247300 -0.000648159 0.326598632 1.000000000
0.102198273 0.072622116 0.104807034 -0.000056606 -0.759580047 0.000742381 0.326598632 1.000000000
0.103780702 0.071327213 0.103871930 0.000677765 -0.761508981 0.001658634 0.326598632 1.000000000
0.098861947 0.067623977 0.099977069 0.000447181 -0.767810879 0.000756007 0.326598632 1.000000000
0.095277810 0.072855017 0.099969628 -0.002285326 -0.758765138 0.000394059 0.326598632 1.000000000
0.097197852 0.069200197 0.095679466 -0.000448685 -0.759972669 -0.000993997 0.326598632 0.999872334
0.101597606 0.069096748 0.102786670 0.000310026 -0.760446511 0.000814497 0.326598632 1.000000000
0.104059242 0.071676921 0.099930220 0.001338811 -0.759577204 0.000304505 0.326598632 1.000000000
0.099064460 0.073260401 0.098852686 0.000020787 -0.758573921 0.000354060 0.326598632 1.000000000
0.096212656 0.074764005 0.098246416 -0.000262317 -0.755236015 0.000840422 0.326598632 1.000000000
0.094819084 0.073375293 0.095084191 -0.001114749 -0.757028681 -0.000813545 0.326598632 1.000000000
0.104986575 0.070701604 0.104045282 0.001017184 -0.761881925 0.000688253 0.326598632 1.000000000
0.105392750 0.072088200 0.102658873 0.001157947 -0.759468351 0.000580200 0.326598632 0.999987235
0.095619861 0.074840755 0.098759886 -0.000301421 -0.754861629 0.000568423 0.326598632 1.000000000
0.100476986 0.069363110 0.099804173 -0.001244736 -0.761905961 -0.001478864 0.326598632 1.000000000
0.104156903 0.073939806 0.095944382 -0.001226061 -0.757209075 -0.000011089 0.326598632 0.999953189
0.101480377 0.068442357 0.105464448 -0.001413601 -0.761337163 0.002724619 0.326598632 1.000000000
0.098220082 0.069959128 0.099691026 0.002817617 -0.761285666 0.001536578 0.326598632 0.999544738
0.101179598 0.072846137 0.098952610 0.000360246 -0.758109547 -0.000377913 0.326598632 1.000000000
0.094931516 0.067807269 0.099515816 -0.001589317 -0.768240070 -0.000581011 0.326598632 1.000000000
0.094062283 0.074949625 0.094027466 -0.000898315 -0.756789700 -0.000740618 0.326598632 1.000000000
0.103689234 0.069722441 0.095236439 0.001321925 -0.759633735 -0.001793095 0.326598632 1.000000000
0.102286786 0.073525333 0.105545751 -0.000096591 -0.758941206 0.001290561 0.326598632 1.000000000
0.105499188 0.067897587 0.100255815 0.001093935 -0.761537967 0.000291896 0.326598632 1.000000000
0.103108565 0.072316078 0.103100945 0.000782242 -0.760258239 -0.000195482 0.326598632 1.000000000
0.105767964 0.072303788 0.102689556 0.001250780 -0.758954515 0.000494347 0.326598632 1.000000000
0.102318222 0.072378312 0.104840533 -0.000033118 -0.760254218 0.000624600 0.326598632 1.000000000
0.094529697 0.072561499 0.094618510 -0.000648114 -0.762000731 -0.001471145 0.326598632 1.000000000
0.100669477 0.075202107 0.101059301 0.001351980 -0.757522251 -0.000086531 0.326598632 0.999800019
0.095445505 0.069710080 0.099676442 -0.002972634 -0.759373268 -0.004253022 0.326598632 1.000000000
0.095381816 0.068744891 0.102771645 -0.002939319 -0.763128191 0.000366091 0.326598632 1.000000000
0.102940699 0.073569198 0.099060310 0.000106413 -0.757753895 -0.000563211 0.326598632 0.999971189
0.100269406 0.070845715 0.094657257 0.000435088 -0.760784764 -0.001834599 0.326598632 1.000000000
0.098376420 0.072406945 0.101734418 0.002849853 -0.757222334 -0.000306672 0.326598632 0.999344750
0.104621124 0.071052582 0.100728184 0.001374528 -0.760921535 0.000130833 0.326598632 1.000000000
0.098854101 0.070733288 0.100362660 0.002757874 -0.760541298 -0.001392858 0.326598632 1.000000000
0.100460245 0.073638502 0.100869348 0.000403230 -0.758002571 -0.001049487 0.326598632 1.000000000
0.100241714 0.073109202 0.101940949 -0.000689069 -0.758052707 0.001783130 0.326598632 1.000000000
0.099009963 0.074220221 0.099121586 -0.000018759 -0.757538781 -0.000125546 0.326598632 1.000000000
0.094001852 0.075130595 0.099543095 -0.002342673 -0.756356973 -0.000329497 0.326598632 1.000000000
0.105191665 0.070276755 0.096225893 0.000741594 -0.759053158 -0.000027215 0.326598632 1.000000000
0.094630325 0.067277468 0.094838631 -0.001487169 -0.765060248 -0.001732859 0.326598632 1.000000000
0.099758950 0.067501699 0.095060124 0.001249170 -0.765879247 -0.002840679 0.326598632 1.000000000
0.098779150 0.069377826 0.100969882 0.001053061 -0.761031447 0.001598113 0.326598632 0.999452729
0.100270560 0.069896438 0.095099795 0.000427110 -0.759970561 -0.001243692 0.326598632 1.000000000
0.099607483 0.067228014 0.102787445 -0.000414194 -0.765460466 0.000193794 0.326598632 1.000000000
0.102587523 0.074029752 0.097564350 0.003073373 -0.757268853 0.001169503 0.326598632 0.999204307
0.104924581 0.069422686 0.101069813 0.000633733 -0.760880867 0.000558325 0.326598632 0.999954635
0.098700505 0.068080028 0.094539403 0.000565891 -0.760714305 -0.002021748 0.326598632 1.000000000
0.103575592 0.074859390 0.095493320 -0.000343919 -0.757120219 0.000079264 0.326598632 1.000000000
0.105788271 0.071915174 0.097107945 0.000624310 -0.756197947 0.000241344 0.326598632 0.999758785
0.104845237 0.072011990 0.104610787 0.000817029 -0.760022927 0.000643591 0.326598632 1.000000000
0.094778785 0.073151781 0.105872388 -0.001136610 -0.760577168 0.002912238 0.326598632 1.000000000
0.096766964 0.073908587 0.098819161 0.000025125 -0.757787991 0.001076919 0.326598632 1.000000000
0.094560449 0.068164843 0.103968164 -0.002703427 -0.763211003 0.000066465 0.326598632 1.000000000
0.105488010 0.067496672 0.098609423 0.001252375 -0.763535213 0.000110642 0.326598632 1.000000000
0.101557601 0.073613281 0.103915180 0.001601182 -0.756773898 0.000892148 0.326598632 1.000000000
0.101167572 0.071353013 0.096595232 0.000076126 -0.757111234 -0.001890951 0.326598632 1.000000000
0.100180973 0.069284829 0.100300820 -0.003356257 -0.762963426 0.000721797 0.326598632 1.000000000
0.104769870 0.075177648 0.099893947 0.000779351 -0.758732058 -0.000323102 0.326598632 1.000000000
0.102974324 0.072189193 0.099559714 0.000241441 -0.756964362 0.000115360 0.326598632 0.999817814
0.104321754 0.074367458 0.094417564 0.000226773 -0.755976203 -0.000877720 0.326598632 1.000000000
0.097275173 0.070334828 0.099489154 -0.001666174 -0.758605523 0.001118840 0.326598632 1.000000000
0.104226858 0.067558000 0.099720799 0.001246961 -0.762563434 0.000845672 0.326598632 1.000000000
0.105180204 0.069837277 0.094423658 0.001106976 -0.760545246 -0.001230826 0.326598632 1.000000000
0.097033112 0.069455358 0.102823261 0.001811917 -0.760062142 0.002829020 0.326598632 1.000000000
0.094585659 0.072769285 0.094058452 -0.000089005 -0.761907500 -0.002328113 0.326598632 1.000000000
0.095313599 0.074907235 0.100391665 -0.000024314 -0.751594524 0.001711835 0.326598632 1.000000000
0.094737773 0.075141852 0.104732221 -0.000578048 -0.753486770 -0.001137534 0.326598632 1.000000000
0.104878670 0.071333213 0.104595507 0.000972673 -0.761035476 0.000922039 0.326598632 1.000000000
0.100525092 0.072502640 0.100855864 0.000353266 -0.759007199 -0.001065905 0.326598632 1.000000000
0.100255447 0.073077361 0.104374007 0.000965424 -0.759677642 0.000645937 0.326598632 1.000000000
0.095887521 0.069166254 0.104420224 -0.000613263 -0.762126219 0.003120574 0.326598632 0.999983508
0.096863657 0.069876567 0.095924305 -0.000838122 -0.760791110 -0.001364253 0.326598632 1.000000000
0.102388892 0.068164736 0.105161564 0.000182561 -0.761385931 0.001040043 0.326598632 1.000000000
0.105535866 0.074374369 0.096270695 -0.000262632 -0.753820320 -0.000235069 0.326598632 1.000000000
0.094060325 0.074352343 0.099585618 -0.003612182 -0.757883217 -0.000453349 0.326598632 1.000000000
0.104904669 0.069146630 0.103839502 0.000740137 -0.760646127 0.000303206 0.326598632 0.999723704
0.103080471 0.071768178 0.094010245 0.000990108 -0.760365606 -0.004211454 0.326598632 1.000000000
0.095008348 0.068862115 0.097104097 -0.001251214 -0.760398435 -0.000444481 0.326598632 1.000000000
0.095389259 0.071795965 0.097916054 -0.002622050 -0.762557706 -0.001055313 0.326598632 1.000000000
0.103825027 0.067388854 0.098520055 0.001875657 -0.764316966 -0.000389791 0.326598632 1.000000000
0.094219668 0.069586138 0.095540399 -0.001882538 -0.759346845 -0.001337718 0.326598632 1.000000000
0.098705733 0.074040383 0.099186784 0.000112254 -0.758320936 -0.000050905 0.326598632 1.000000000
0.103466083 0.073349482 0.096154194 0.000406238 -0.758352750 0.000269109 0.326598632 0.999867328
0.105367746 0.073487703 0.096085139 -0.000452824 -0.756005999 0.000148944 0.326598632 1.000000000
0.102503652 0.073487548 0.095996428 0.004966376 -0.757860501 -0.000570546 0.326598632 0.999334474
0.094894634 0.067776346 0.099683886 -0.001477607 -0.768034239 0.000133766 0.326598632 1.000000000
0.102112681 0.075242030 0.104229329 0.000254792 -0.755531994 0.001418644 0.326598632 1.000000000
0.101132890 0.072499715 0.099351283 0.000163889 -0.758644712 0.000566118 0.326598632 1.000000000
0.103859189 0.067842293 0.098603246 0.002025010 -0.762772726 0.000035018 0.326598632 1.000000000
0.097030278 0.073869369 0.098462052 0.000157348 -0.757778993 0.000626875 0.326598632 1.000000000
0.099622915 0.068589834 0.094010913 0.000172648 -0.760550553 -0.001910642 0.326598632 1.000000000
0.104250287 0.068134611 0.105332029 -0.000140313 -0.762925998 0.000649059 0.326598632 1.000000000
0.097580764 0.073927066 0.100324268 0.000348295 -0.757112122 -0.000639883 0.326598632 0.999823596
0.096760633 0.073501709 0.104079574 -0.001097563 -0.758577753 0.001319799 0.326598632 1.000000000
0.105559217 0.074265588 0.095575678 -0.000024233 -0.754652888 -0.001664258 0.326598632 1.000000000
0.104915206 0.073170237 0.094374786 0.001135435 -0.758376284 -0.001305625 0.326598632 1.000000000
0.103121187 0.075036730 0.104288571 0.000652268 -0.757440404 0.000565295 0.326598632 1.000000000
0.097850229 0.069812177 0.099307643 0.002106943 -0.761136001 0.002770748 0.326598632 1.000000000
0.096404185 0.073286725 0.102692891 -0.000746317 -0.757597851 0.000121995 0.326598632 0.999736596
0.100753610 0.073038871 0.104417719 0.002411884 -0.757899842 0.000993930 0.326598632 1.000000000
0.095908755 0.071663342 0.099657649 -0.004352210 -0.759877898 -0.000661947 0.326598632 1.000000000
0.095842970 0.068046097 0.096444652 -0.000992080 -0.761405264 -0.000108446 0.326598632 1.000000000
0.094210923 0.071557936 0.099442231 -0.005091441 -0.763730668 -0.000960586 0.326598632 1.000000000
0.104942353 0.069671023 0.103561579 0.001107682 -0.761410690 0.000297553 0.326598632 0.999707355
0.099546047 0.068800061 0.105612715 0.001080930 -0.763505207 0.003903308 0.326598632 1.000000000
0.101288216 0.072105079 0.094011468 0.000883014 -0.760020220 -0.004840907 0.326598632 1.000000000
0.096706114 0.071786858 0.096969893 -0.001059546 -0.758610362 -0.002045341 0.326598632 1.000000000
0.097910495 0.072531726 0.095929468 -0.000715835 -0.758911436 -0.000759859 0.326598632 1.000000000
0.105814533 0.070783553 0.101084061 0.002238334 -0.760971353 0.000612226 0.326598632 1.000000000
0.102165800 0.071035654 0.095794112 0.000389684 -0.756697398 -0.002399665 0.326598632 1.000000000
0.102662776 0.075118790 0.098746702 0.000012149 -0.756449547 0.000089148 0.326598632 1.000000000
0.105434890 0.073376611 0.101884741 0.002838842 -0.757055885 0.000789873 0.326598632 1.000000000
0.102990075 0.073113295 0.104894284 0.000579922 -0.758550654 0.001052001 0.326598632 1.000000000
0.100851402 0.068140085 0.095751306 0.000722222 -0.762335919 -0.000191864 0.326598632 1.000000000
0.096524002 0.071177817 0.094219153 -0.000345897 -0.760107843 -0.001974351 0.326598632 1.000000000
0.105295491 0.073524487 0.098151506 0.000686693 -0.759161888 -0.000422563 0.326598632 1.000000000
0.104590877 0.071594014 0.094868801 0.000705355 -0.758313590 -0.000419217 0.326598632 1.000000000
0.098293023 0.073915387 0.094989734 -0.000552874 -0.756270307 -0.001276873 0.326598632 1.000000000
0.096410393 0.075140993 0.097865049 -0.000250177 -0.754678730 0.000320661 0.326598632 1.000000000
0.094492493 0.073892386 0.102318895 -0.002196738 -0.754149246 0.000487614 0.326598632 1.000000000
0.095490980 0.074935001 0.102046060 0.000479769 -0.753137944 0.002274451 0.326598632 1.000000000
0.101399391 0.072076773 0.104754920 0.000254497 -0.760735255 0.000932224 0.326598632 1.000000000
0.105223165 0.069708560 0.101356112 0.000956128 -0.761062537 0.000807882 0.326598632 1.000000000
0.103401263 0.072320561 0.105368646 0.000877444 -0.760324868 0.000960660 0.326598632 1.000000000
0.101930404 0.071193457 0.101347432 0.000402054 -0.760580657 0.000251482 0.326598632 0.999868696
0.103406290 0.072097154 0.100636467 0.000648056 -0.759976176 0.000423075 0.326598632 1.000000000
0.095968955 0.067639660 0.099772180 -0.001405506 -0.770550897 0.001384475 0.326598632 1.000000000
0.101119178 0.073118301 0.099263179 -0.000203043 -0.758089833 0.000340685 0.326598632 1.000000000
0.101389207 0.071152638 0.101804149 0.000608096 -0.760265158 0.000208967 0.326598632 0.999880729
0.102932243 0.071080124 0.097946999 0.000614209 -0.757150099 -0.002121159 0.326598632 1.000000000
0.094522418 0.070786780 0.104463201 -0.002083017 -0.760792133 0.001543708 0.326598632 1.000000000
0.101839729 0.067483491 0.095940914 0.001111944 -0.764667347 0.000810909 0.326598632 1.000000000
0.099920212 0.071658629 0.097987093 0.004201446 -0.758748698 -0.002417798 0.326598632 1.000000000
0.096646438 0.070544391 0.094977359 -0.000576359 -0.760757095 -0.001574729 0.326598632 1.000000000
0.104086149 0.068946691 0.099020276 0.002369254 -0.760413573 -0.000108841 0.326598632 1.000000000
0.098990697 0.075007703 0.096090208 -0.000294157 -0.755552714 -0.000621013 0.326598632 1.000000000
0.102824289 0.072461904 0.104155150 0.000462823 -0.759517439 -0.000187681 0.326598632 1.000000000
0.100519683 0.071471598 0.103213617 0.000902594 -0.758685872 0.000997095 0.326598632 1.000000000
0.094350261 0.072136713 0.100169192 -0.003848014 -0.759507135 0.000522821 0.326598632 1.000000000
0.101173202 0.072281891 0.098745515 0.001487329 -0.758360224 -0.001409599 0.326598632 1.000000000
0.105906027 0.072673005 0.103515675 0.000767395 -0.758780516 0.000410811 0.326598632 1.000000000
0.098606558 0.070304556 0.097406092 0.001278446 -0.760396066 -0.003719889 0.326598632 1.000000000
0.096829882 0.074120738 0.099589729 0.000881327 -0.757620747 0.000340727 0.326598632 1.000000000
0.101222540 0.070674554 0.103312910 0.000477438 -0.759178370 0.000724254 0.326598632 1.000000000
0.100151067 0.070413957 0.101590337 0.000306866 -0.760905072 -0.000187979 0.326598632 0.999709112
0.099245744 0.067983358 0.098957584 0.000332177 -0.762764604 0.000932222 0.326598632 1.000000000
0.101115532 0.070672149 0.095167711 0.000462947 -0.759404873 -0.001747752 0.326598632 0.999983409
0.095141534 0.072734220 0.100954737 -0.002791237 -0.757443023 0.001506114 0.326598632 1.000000000
0.098788264 0.069929024 0.101826023 0.000541855 -0.760625544 0.001205582 0.326598632 1.000000000
0.101060455 0.067501454 0.104297631 -0.001289543 -0.765197789 0.002262056 0.326598632 1.000000000
0.096844091 0.070604853 0.101185008 -0.004264146 -0.760908984 0.000181457 0.326598632 1.000000000
0.099303788 0.074503432 0.096816316 -0.001041533 -0.756238425 0.000543513 0.326598632 1.000000000
0.102032367 0.071022381 0.097970292 -0.002122963 -0.758240496 -0.000497782 0.326598632 1.000000000
0.101054882 0.071027909 0.095748287 0.000321930 -0.758635241 -0.001696121 0.326598632 1.000000000
0.098311062 0.069449849 0.105384275 0.000377817 -0.762325935 0.002413254 0.326598632 1.000000000
0.098280690 0.072275962 0.098552308 -0.000887190 -0.759294866 0.000326821 0.326598632 0.999908558
0.102463969 0.073688378 0.100402272 -0.000466790 -0.757491169 -0.000131839 0.326598632 1.000000000
0.100697651 0.074346800 0.099356445 -0.000050016 -0.757132662 -0.000050026 0.326598632 1.000000000
0.105841152 0.067704538 0.100479062 0.001118953 -0.761614883 0.000279826 0.326598632 1.000000000
0.094619721 0.069281137 0.095474623 -0.001348126 -0.759321857 -0.001126774 0.326598632 1.000000000
0.096159472 0.069228139 0.101678974 -0.003192560 -0.761751253 -0.002092346 0.326598632 1.000000000
0.101016695 0.068257748 0.095062187 0.000716186 -0.760798711 -0.000909266 0.326598632 1.000000000
0.099758427 0.070611186 0.102258637 0.000518491 -0.760017201 -0.000494517 0.326598632 1.000000000
0.097877938 0.067568555 0.102231805 0.002528614 -0.765683143 0.001193137 0.326598632 1.000000000
0.097050906 0.072071865 0.105678241 0.000119901 -0.761528830 0.002182979 0.326598632 1.000000000
0.100385869 0.070171686 0.100259866 -0.001320339 -0.759518434 0.000080742 0.326598632 1.000000000
0.095721405 0.068492680 0.095508284 -0.001215231 -0.760380276 -0.000856600 0.326598632 1.000000000
0.095948506 0.073295096 0.105279201 -0.000915788 -0.760029025 0.002512252 0.326598632 1.000000000
0.095874256 0.073280520 0.096258881 -0.000955970 -0.757498254 -0.001610546 0.326598632 0.999978106
0.097063707 0.075141352 0.096814496 0.000630909 -0.755373244 -0.001507187 0.326598632 1.000000000
0.098492037 0.075263104 0.101939403 0.001792357 -0.754547792 -0.001435717 0.326598632 1.000000000
0.103970490 0.069385500 0.094209304 0.000276304 -0.759978886 -0.001386617 0.326598632 1.000000000
0.095356339 0.073581660 0.104375315 -0.001747356 -0.758204872 0.000606621 0.326598632 1.000000000
0.101207073 0.074783208 0.103546658 -0.000170696 -0.755773627 0.000929059 0.326598632 1.000000000
0.102003847 0.074046994 0.105290783 0.000201336 -0.757841185 0.000996261 0.326598632 1.000000000
0.095910154 0.070219969 0.100924423 -0.005068100 -0.761004497 -0.004844252 0.326598632 1.000000000
0.104397508 0.069975791 0.101259863 0.000810028 -0.761363403 0.000295584 0.326598632 0.999894508
0.095085283 0.073450406 0.105922564 -0.000575186 -0.760590165 0.003650192 0.326598632 1.000000000
0.101807043 0.068302670 0.097463469 0.000563616 -0.762993425 0.000061675 0.326598632 1.000000000
0.099258483 0.074839736 0.103182352 0.001103024 -0.754170409 0.000679473 0.326598632 1.000000000
0.097806436 0.074455758 0.104817385 -0.000012380 -0.756201473 0.002187534 0.326598632 1.000000000
0.097561492 0.070436048 0.104426980 -0.001155594 -0.760746398 0.001865003 0.326598632 0.999733094
0.101562915 0.070057961 0.101789336 -0.000149678 -0.758713387 0.001117065 0.326598632 1.000000000
0.098565832 0.071940253 0.101318233 0.005206141 -0.754142966 0.002720622 0.326598632 0.999782174
0.100548093 0.072203613 0.100581812 0.000183650 -0.759558844 -0.000601268 0.326598632 1.000000000
0.101045473 0.067544981 0.099333460 -0.000061507 -0.768374720 0.001494539 0.326598632 1.000000000
0.103112655 0.072573415 0.096021341 0.001230869 -0.758252116 -0.000294333 0.326598632 0.999559965
0.105419838 0.071770902 0.100004339 0.003354085 -0.759330081 -0.000795617 0.326598632 1.000000000
0.103765114 0.074746713 0.104166480 0.000156063 -0.758267513 0.000684694 0.326598632 1.000000000
0.100319511 0.068623533 0.095306586 0.000241775 -0.760800686 -0.001026783 0.326598632 1.000000000
0.098732359 0.071246031 0.096952559 0.000161377 -0.757603213 -0.001536208 0.326598632 1.000000000
0.102585368 0.073408695 0.100593128 -0.000211517 -0.758080934 -0.000112384 0.326598632 1.000000000
0.099169997 0.074012190 0.100254715 -0.000577345 -0.758256066 -0.000956317 0.326598632 0.999957968
0.105456077 0.068000213 0.104760519 0.000261473 -0.762943872 -0.000028704 0.326598632 1.000000000
0.096365626 0.070471779 0.101857175 -0.001785406 -0.760394090 0.001429847 0.326598632 1.000000000
0.095996595 0.068985998 0.099750310 -0.002966964 -0.763387577 -0.000360156 0.326598632 1.000000000
0.102041805 0.071616699 0.101408727 0.000510698 -0.760586379 0.000511481 0.326598632 1.000000000
0.100971149 0.071689950 0.105155786 0.000131553 -0.760893569 0.001577991 0.326598632 0.999970772
0.098798607 0.073172996 0.095075161 0.000270797 -0.757895283 -0.000586105 0.326598632 1.000000000
0.100269514 0.074017905 0.105721426 0.000514596 -0.757538078 0.002915578 0.326598632 0.999333535
0.103597138 0.074421797 0.095478711 -0.000333483 -0.757452600 0.000086129 0.326598632 1.000000000
0.103521547 0.069907130 0.096214805 0.002692029 -0.760131394 -0.001103556 0.326598632 1.000000000
0.099094220 0.074889229 0.096222650 -0.000340892 -0.755724721 -0.000491788 0.326598632 1.000000000
0.098481675 0.074072190 0.095044120 -0.000545275 -0.756186154 -0.001103189 0.326598632 1.000000000
0.094027844 0.068442575 0.100319241 -0.006863933 -0.763578306 0.002505423 0.326598632 1.000000000
0.101122533 0.071666803 0.101656155 0.001318262 -0.760427432 0.000176651 0.326598632 1.000000000
0.096097019 0.072718438 0.103524800 -0.000888501 -0.759212382 0.000411511 0.326598632 1.000000000
0.103239571 0.074794098 0.098329220 0.000262245 -0.756585403 -0.000060729 0.326598632 1.000000000
0.097624664 0.069589464 0.100680652 -0.000572101 -0.760170085 0.001969303 0.326598632 0.999571263
0.102057357 0.074356364 0.102783785 0.000909059 -0.756853498 -0.000080751 0.326598632 1.000000000
0.095795874 0.073680232 0.103714178 -0.001382488 -0.757156249 0.000276650 0.326598632 1.000000000
0.096822944 0.068766861 0.099087168 -0.002311681 -0.765932338 -0.001157437 0.326598632 1.000000000
0.100424403 0.071328851 0.104431684 0.000454849 -0.759731154 0.001408971 0.326598632 0.999596305
0.096762499 0.070043093 0.096140790 -0.001047204 -0.760417669 -0.001883154 0.326598632 0.999719996
0.097082804 0.072650056 0.096473785 -0.000855334 -0.759113349 -0.000030261 0.326598632 0.999925003
0.095700170 0.068011092 0.101583386 -0.003730640 -0.764849019 -0.002169812 0.326598632 1.000000000
0.102110332 0.072322918 0.097294684 0.001884273 -0.756228505 -0.000308284 0.326598632 0.999054887
0.102694025 0.071111195 0.099312445 -0.000458679 -0.759036414 0.001986387 0.326598632 1.000000000
0.103824434 0.070274713 0.094189164 0.000057479 -0.759026937 -0.001406813 0.326598632 1.000000000
0.104866707 0.070242272 0.101239067 0.000889794 -0.761248587 0.000570804 0.326598632 1.000000000
0.101743844 0.069664494 0.103271760 0.000622941 -0.758817836 0.000411146 0.326598632 1.000000000
0.098403743 0.070754785 0.101149591 0.001628922 -0.760142701 0.002554776 0.326598632 1.000000000
0.099308956 0.072483021 0.098122597 -0.000683838 -0.757667425 0.000294484 0.326598632 1.000000000
0.094838114 0.072902775 0.103982185 -0.001967810 -0.758733683 0.000306846 0.326598632 1.000000000
0.101113741 0.069713055 0.101682310 -0.001418201 -0.760212029 0.002039455 0.326598632 1.000000000
0.099482275 0.069390833 0.102161584 0.000361631 -0.761811549 0.000400922 0.326598632 1.000000000
0.098541206 0.067963090 0.096283966 -0.000874883 -0.762675278 -0.000681653 0.326598632 1.000000000
0.099356188 0.075511529 0.098355300 -0.000082092 -0.754519296 0.000061574 0.326598632 1.000000000
0.095063441 0.072188037 0.098002212 -0.004039781 -0.763209154 -0.000746772 0.326598632 1.000000000
0.103058224 0.072624533 0.105540340 0.000518099 -0.760164034 0.001247838 0.326598632 1.000000000
0.099072604 0.070821628 0.096045356 0.000817324 -0.758264478 -0.001043752 0.326598632 1.000000000
0.097610367 0.067553475 0.103861541 0.000297791 -0.763390412 -0.000231637 0.326598632 1.000000000
0.098591181 0.071345292 0.105776823 0.001469927 -0.758364512 0.004215312 0.326598632 1.000000000
0.094240080 0.075341316 0.095438096 -0.000488671 -0.754361722 0.000301734 0.326598632 1.000000000
0.096923788 0.073695189 0.102845811 -0.001235511 -0.757421311 0.000157094 0.326598632 1.000000000
0.097084667 0.068287300 0.102058824 0.000069127 -0.762545560 0.001178647 0.326598632 1.000000000
0.101301692 0.074464238 0.103455403 0.000110685 -0.756543622 0.000936451 0.326598632 1.000000000
0.094756019 0.068817242 0.100081679 -0.002334028 -0.764468194 -0.001533555 0.326598632 1.000000000
0.098100600 0.069364345 0.095411046 0.000786091 -0.759699508 -0.001803364 0.326598632 0.999882652
0.096867552 0.070316317 0.098569911 -0.004598155 -0.757754298 0.002057170 0.326598632 1.000000000
0.097356904 0.074148484 0.100116700 0.000782081 -0.756967196 -0.000255675 0.326598632 1.000000000
0.095941839 0.074534890 0.105309515 0.000738182 -0.755631228 0.001759592 0.326598632 1.000000000
0.100799073 0.072142992 0.103435516 0.000687964 -0.758975648 -0.000760429 0.326598632 0.999682995
0.098766102 0.071554560 0.098693000 -0.002503627 -0.758162664 0.003285027 0.326598632 0.999631079
0.102091805 0.072569578 0.100476864 0.000118207 -0.758987784 0.000179318 0.326598632 1.000000000
0.095695417 0.073318631 0.100390399 -0.000848483 -0.757692857 0.001484159 0.326598632 1.000000000
0.097870416 0.074097050 0.096543756 0.000701558 -0.755979043 -0.000264698 0.326598632 0.999805205
0.096682913 0.068774798 0.094273593 -0.000684599 -0.759907285 -0.001601002 0.326598632 1.000000000
0.105192943 0.072130242 0.105488156 0.000361114 -0.759143984 0.000496184 0.326598632 1.000000000
0.097764765 0.071380848 0.100902297 -0.001819683 -0.756545239 0.001310934 0.326598632 1.000000000
0.104779355 0.068658248 0.101276730 0.000378182 -0.760212002 0.000438601 0.326598632 1.000000000
0.105433989 0.070084273 0.103952042 0.000924926 -0.762304919 0.000186647 0.326598632 1.000000000
0.095460320 0.072876115 0.103902327 -0.001688501 -0.759073523 0.000477572 0.326598632 1.000000000
0.096790277 0.071595302 0.099738104 -0.003555022 -0.756488137 -0.002254020 0.326598632 1.000000000
0.095464598 0.073760809 0.094958688 -0.000883060 -0.755034987 -0.001499077 0.326598632 1.000000000
0.104514155 0.075040437 0.101131837 0.001430936 -0.754310529 0.000584411 0.326598632 1.000000000
0.094003208 0.074358342 0.097332745 -0.001768041 -0.757387198 -0.000591469 0.326598632 1.000000000
0.098377003 0.072366490 0.094210840 -0.001871963 -0.757519734 -0.005265994 0.326598632 1.000000000
0.096300750 0.072060796 0.098637170 -0.001858643 -0.759450811 0.000054376 0.326598632 1.000000000
0.103051591 0.071422573 0.096540611 0.001332494 -0.755926935 -0.002509212 0.326598632 0.999559890
0.099163898 0.069923574 0.101434121 0.000702056 -0.761070485 0.000780580 0.326598632 0.999907983
0.103392601 0.068140792 0.096047971 0.001210488 -0.763954036 -0.000491111 0.326598632 1.000000000
0.102300407 0.068966572 0.097184707 0.000855729 -0.764751936 0.001695457 0.326598632 1.000000000
0.096746970 0.072612827 0.101417494 -0.001030390 -0.754756895 0.001337520 0.326598632 1.000000000
0.096084577 0.069425389 0.096791149 -0.001256160 -0.759446562 -0.001465967 0.326598632 1.000000000
0.102691911 0.074444760 0.101868755 0.000425898 -0.755801151 -0.000292571 0.326598632 1.000000000
0.101849017 0.070897458 0.103505617 0.000295115 -0.759186104 0.000769557 0.326598632 0.999907327
0.099779988 0.071863031 0.098250804 0.001323179 -0.758071669 0.000611515 0.326598632 1.000000000
0.105566131 0.070755773 0.096122685 0.000568483 -0.758260647 0.000050017 0.326598632 1.000000000
0.099023068 0.068729436 0.096982913 0.000600747 -0.760440945 -0.000844700 0.326598632 1.000000000
0.102171763 0.072316358 0.103484209 0.000187635 -0.759402044 -0.000534647 0.326598632 1.000000000
0.097881859 0.072610868 0.096276162 -0.000665687 -0.758707064 -0.000023801 0.326598632 1.000000000
0.096385724 0.072692734 0.104011882 -0.001362691 -0.760317552 0.000799598 0.326598632 1.000000000
0.098457132 0.067999100 0.094774396 0.000421376 -0.760766243 -0.002095227 0.326598632 1.000000000
0.099991995 0.072828194 0.097190273 -0.000481714 -0.758043280 -0.000182434 0.326598632 0.999620400
0.095525968 0.068852180 0.097191888 -0.001164193 -0.760416596 -0.000672225 0.326598632 1.000000000
0.101820836 0.069607067 0.104376498 0.000388849 -0.758789166 0.001553102 0.326598632 1.000000000
0.104315097 0.072571413 0.103728544 0.001227529 -0.759636441 0.000509782 0.326598632 1.000000000
0.095597669 0.075311437 0.098708967 -0.000108381 -0.753279902 0.000493964 0.326598632 1.000000000
0.105314287 0.072929413 0.095225596 0.000565144 -0.757457754 -0.001021887 0.326598632 1.000000000
0.097352620 0.068269195 0.103706744 0.000568439 -0.761261784 0.000666974 0.326598632 1.000000000
0.103373760 0.069683350 0.105164411 -0.000037600 -0.759151983 0.001728701 0.326598632 1.000000000
0.098636536 0.071624180 0.103901723 0.000260149 -0.755992028 0.001011496 0.326598632 1.000000000
0.104673403 0.069474230 0.099401372 0.001907818 -0.760436074 -0.000206202 0.326598632 0.999836055
0.095267982 0.074720167 0.099407522 -0.000878030 -0.754533899 -0.000217047 0.326598632 1.000000000
0.094573583 0.071205534 0.105860108 -0.001123151 -0.759294223 0.002219429 0.326598632 1.000000000
0.101908481 0.073630243 0.094455591 0.000367320 -0.755863543 -0.002461521 0.326598632 1.000000000
0.094425337 0.068501368 0.103625635 -0.003843441 -0.761488538 0.000718811 0.326598632 1.000000000
0.099543338 0.070759237 0.100102516 0.000602534 -0.759841023 -0.000583419 0.326598632 0.999674400
0.105307861 0.075426639 0.105899124 0.000211047 -0.755839078 0.000176524 0.326598632 1.000000000
0.098944887 0.070498336 0.103406536 -0.000935162 -0.759265985 0.001842877 0.326598632 0.999822972
0.094823275 0.074304111 0.100595887 -0.002673471 -0.755748941 0.002818124 0.326598632 1.000000000
0.100175921 0.068318988 0.099092292 0.000235853 -0.762796139 0.000724792 0.326598632 1.000000000
0.096734055 0.073919529 0.104787923 -0.000358703 -0.757910118 0.002117015 0.326598632 1.000000000
0.094123997 0.072997945 0.105712581 -0.003005588 -0.759288007 0.001749352 0.326598632 1.000000000
0.094830426 0.069744706 0.097064733 -0.001291823 -0.759415176 -0.000521331 0.326598632 1.000000000
0.104749907 0.071484639 0.105518162 0.000405331 -0.760433897 0.000587413 0.326598632 1.000000000
0.099692295 0.068660730 0.097866940 0.001003153 -0.761302946 0.000011251 0.326598632 0.999817108
0.105043963 0.071547733 0.095367451 0.000772483 -0.757648828 -0.000081184 0.326598632 1.000000000
0.095878509 0.072592230 0.100249455 -0.002405767 -0.757239312 0.000339684 0.326598632 1.000000000
0.101182814 0.068545297 0.094524303 0.000692271 -0.758868279 -0.001086771 0.326598632 1.000000000
0.100601312 0.070666703 0.095139484 0.000514282 -0.759839851 -0.001471566 0.326598632 1.000000000
0.097285750 0.068966412 0.098663368 0.001090571 -0.765164459 -0.002497649 0.326598632 1.000000000
0.099952670 0.073067183 0.105141123 0.000519274 -0.759837994 0.008045515 0.326598632 1.000000000
0.102057452 0.075600509 0.094152551 -0.000055965 -0.754318777 -0.000106965 0.326598632 1.000000000
0.097101397 0.074694379 0.097803042 0.001046502 -0.755932303 -0.000329580 0.326598632 1.000000000
0.096652278 0.072749376 0.100528368 -0.001065804 -0.755013034 0.000341559 0.326598632 1.000000000
0.100693824 0.073644565 0.105741283 0.000463787 -0.758687379 0.002757380 0.326598632 0.999667918
0.097840065 0.068088721 0.096167135 -0.001513272 -0.761533997 -0.000100603 0.326598632 1.000000000
0.100475230 0.069812874 0.103038228 0.000519518 -0.760672299 0.000565894 0.326598632 1.000000000
0.102223829 0.068521530 0.102735522 0.000826099 -0.762688218 0.000869149 0.326598632 1.000000000
0.099860839 0.075382327 0.095102287 0.000342753 -0.753858883 -0.000582111 0.326598632 1.000000000
0.098961358 0.070397775 0.095807652 0.001077879 -0.759163546 -0.001406644 0.326598632 1.000000000
0.101343377 0.073606777 0.103098360 0.001283675 -0.757954001 -0.000141472 0.326598632 1.000000000
0.095124546 0.068871237 0.095270693 -0.001280574 -0.759990697 -0.001087897 0.326598632 1.000000000
0.099205634 0.074677057 0.100925816 0.000386982 -0.757215992 -0.002142920 0.326598632 1.000000000
0.103741329 0.072123803 0.095930252 0.000671408 -0.758162288 0.000057343 0.326598632 0.999945238
0.097334831 0.074712155 0.102900506 -0.000875450 -0.754734046 0.000674640 0.326598632 1.000000000
0.101891084 0.074698955 0.096327449 0.002882042 -0.754691242 -0.000134898 0.326598632 1.000000000
0.103781639 0.073598480 0.097731099 0.000497514 -0.757070324 0.000041898 0.326598632 0.999944291
0.098503605 0.073162527 0.101379164 0.001623158 -0.758424745 -0.002016758 0.326598632 1.000000000
0.104177093 0.071851449 0.100464155 0.001262244 -0.759669799 0.000134614 0.326598632 1.000000000
0.094131325 0.074321674 0.104079085 -0.002884558 -0.756673025 -0.001303569 0.326598632 1.000000000
0.102140915 0.073728888 0.102994851 0.001169476 -0.758217834 0.000300264 0.326598632 1.000000000
0.099644107 0.074395840 0.103075108 0.001207005 -0.756226881 -0.000685970 0.326598632 1.000000000
0.098625039 0.068655798 0.100024575 0.002000575 -0.760904311 0.000007383 0.326598632 1.000000000
0.096607033 0.073903592 0.101720566 0.000374788 -0.755451810 0.000477838 0.326598632 1.000000000
0.094021663 0.072964019 0.095653774 -0.002333852 -0.757798015 -0.000519050 0.326598632 1.000000000
0.096002290 0.068004448 0.096140373 -0.001099015 -0.761295122 -0.000335935 0.326598632 1.000000000
0.098828112 0.070874093 0.096175576 0.000721746 -0.758135551 -0.001157781 0.326598632 1.000000000
0.102680907 0.071853098 0.104491306 0.000148879 -0.760884650 0.000528303 0.326598632 1.000000000
0.102435284 0.069576332 0.095249183 0.000087134 -0.758780793 -0.002323242 0.326598632 1.000000000
0.101192834 0.071665001 0.094633051 0.001286413 -0.760074653 -0.002192024 0.326598632 1.000000000
0.097865573 0.067954561 0.101225878 0.002450721 -0.767831624 0.000585386 0.326598632 1.000000000
0.102345219 0.068962854 0.101638282 0.001392502 -0.768584924 0.002628201 0.326598632 1.000000000
0.096518111 0.075630240 0.102951172 0.000147589 -0.752085385 0.000222621 0.326598632 1.000000000
0.098481429 0.071936359 0.103901835 -0.000630688 -0.755414851 0.000908627 0.326598632 1.000000000
0.096830450 0.073657511 0.095468480 0.001101427 -0.754693779 -0.000923388 0.326598632 1.000000000
0.103616988 0.068271942 0.098457020 0.002082768 -0.762328042 -0.000159896 0.326598632 1.000000000
0.097592928 0.073641936 0.103199581 -0.001446627 -0.757461146 0.001290718 0.326598632 1.000000000
0.099953556 0.072873354 0.096081767 -0.002280554 -0.758316029 0.000162302 0.326598632 0.999348781
0.105893807 0.073260711 0.096139108 0.001659400 -0.756413967 0.000543157 0.326598632 1.000000000
0.105404190 0.073693183 0.102966904 0.001629629 -0.756839730 0.000951388 0.326598632 1.000000000
0.105755952 0.072297576 0.096435329 0.000983275 -0.757405003 0.000644136 0.326598632 1.000000000
0.101029835 0.073375104 0.095983061 -0.000729432 -0.757707568 -0.003342896 0.326598632 1.000000000
0.105156122 0.073354361 0.101037612 0.002428371 -0.757417638 -0.000406859 0.326598632 1.000000000
0.104232794 0.068221085 0.103391039 0.000203768 -0.760220745 0.000209685 0.326598632 1.000000000
0.099541060 0.070788165 0.096706107 0.001487333 -0.758268028 -0.002606013 0.326598632 0.999800438
0.105249088 0.071253742 0.099770579 0.003910568 -0.760294689 -0.000769308 0.326598632 1.000000000
0.094597535 0.072822945 0.102472383 -0.002306888 -0.755409025 0.000574402 0.326598632 1.000000000
0.103362589 0.075048326 0.104847116 0.000289565 -0.756660187 0.000635037 0.326598632 1.000000000
0.096702469 0.068230585 0.094083899 -0.000736121 -0.759732887 -0.001643017 0.326598632 1.000000000
0.105071669 0.070963489 0.095576183 0.000662153 -0.758111685 -0.000049818 0.326598632 1.000000000
0.097392662 0.067877930 0.099664812 -0.001082327 -0.770307020 0.000079918 0.326598632 1.000000000
0.097308508 0.068062576 0.094534695 -0.000387432 -0.759578756 -0.001459425 0.326598632 1.000000000
0.105698099 0.074070558 0.097307499 0.000379430 -0.755168868 0.001034593 0.326598632 1.000000000
0.104138374 0.071204264 0.098453961 0.004650253 -0.757374839 -0.002446215 0.326598632 1.000000000
0.104237359 0.069023659 0.097217633 0.001129996 -0.759330751 -0.000017775 0.326598632 1.000000000
0.100743904 0.072730625 0.094557078 -0.000016652 -0.757598715 -0.003273625 0.326598632 1.000000000
0.103263225 0.070293319 0.098150650 0.004207726 -0.766897725 -0.000457216 0.326598632 1.000000000
0.102789439 0.069667170 0.095036661 0.000459442 -0.758245691 -0.002179078 0.326598632 1.000000000
0.104585757 0.068796067 0.100579973 0.000524461 -0.760028938 0.000393693 0.326598632 0.999917607
0.103452604 0.074395993 0.098721258 0.000127378 -0.757102058 -0.000375718 0.326598632 1.000000000
0.105755110 0.071728621 0.101493165 0.001774528 -0.758365635 0.000173767 0.326598632 1.000000000
0.096294110 0.073574742 0.095739526 -0.001378632 -0.755967412 0.000409098 0.326598632 1.000000000
0.105364912 0.070242785 0.098058919 0.002670644 -0.758133163 -0.001438448 0.326598632 1.000000000
0.094264159 0.069237698 0.105608669 -0.001025760 -0.755807226 0.001538103 0.326598632 1.000000000
0.095065413 0.071117854 0.102641207 -0.002394718 -0.754961047 0.003818092 0.326598632 1.000000000
0.105766623 0.072133521 0.102205148 0.001438899 -0.758414930 0.000333319 0.326598632 1.000000000
0.100510507 0.071004716 0.096728567 0.000667087 -0.758048316 -0.002237809 0.326598632 0.999838550
0.101354953 0.072163384 0.103500435 0.000669806 -0.759068768 -0.000541526 0.326598632 0.999872614
0.099143284 0.074548712 0.096713820 -0.000866271 -0.756198044 0.000255830 0.326598632 1.000000000
0.096593103 0.073086512 0.095691372 -0.000581101 -0.758960956 0.000450375 0.326598632 1.000000000
0.099521929 0.074669567 0.095170522 0.000007947 -0.754968649 -0.000879160 0.326598632 1.000000000
0.103443912 0.070096958 0.102991571 0.001226178 -0.761091238 0.001062647 0.326598632 1.000000000
0.105736943 0.070620700 0.095343196 0.000704076 -0.757925658 -0.000135333 0.326598632 1.000000000
0.098076804 0.071751505 0.103527945 -0.000484658 -0.755809432 0.001710125 0.326598632 1.000000000
0.103101250 0.072131093 0.104465805 0.000769816 -0.760402516 0.000703436 0.326598632 1.000000000
0.095514476 0.067915120 0.103049377 -0.002027729 -0.762580697 0.000192355 0.326598632 1.000000000
0.097066359 0.069065107 0.101915960 -0.000065395 -0.758460953 0.001398618 0.326598632 1.000000000
0.103008871 0.072253640 0.105359859 0.000565082 -0.760561266 0.001001573 0.326598632 1.000000000
0.095128680 0.072192939 0.100696138 -0.003761487 -0.758121301 0.001018918 0.326598632 1.000000000
0.098689018 0.070031313 0.098124172 0.000462674 -0.763114017 0.002193758 0.326598632 1.000000000
0.099420435 0.070748105 0.103580445 -0.000559740 -0.758926508 0.002204976 0.326598632 1.000000000
0.099292928 0.068519748 0.098768889 0.000187841 -0.760297253 0.001056241 0.326598632 0.999774483
0.095128164 0.069266473 0.096347148 -0.001067947 -0.758536564 -0.000648468 0.326598632 1.000000000
0.097317443 0.073832723 0.098280045 0.000695513 -0.757888671 0.000058358 0.326598632 1.000000000
0.096350135 0.072913872 0.097747609 -0.000360670 -0.759339180 -0.001865017 0.326598632 1.000000000
0.099371592 0.071934857 0.104764446 0.000348943 -0.758330727 0.003374976 0.326598632 0.999496753
0.101361510 0.069098916 0.100693432 -0.001172261 -0.770864066 -0.003451722 0.326598632 1.000000000
0.096026301 0.074951247 0.098357350 -0.000164287 -0.754731245 0.000735929 0.326598632 1.000000000
0.094399641 0.072557672 0.100084801 -0.003297165 -0.758669336 0.000681942 0.326598632 1.000000000
0.103844593 0.073747463 0.098364239 0.000416457 -0.757461964 -0.000525024 0.326598632 1.000000000
0.105613108 0.074275421 0.097757991 0.000252143 -0.755503457 0.000314070 0.326598632 1.000000000
0.102876871 0.068827546 0.104282490 0.000710238 -0.757373845 0.000017698 0.326598632 0.999952180
0.099824295 0.075794367 0.097836032 -0.000083699 -0.753071175 0.000201219 0.326598632 1.000000000
0.097876196 0.073688188 0.095469061 0.000414140 -0.755307971 -0.000973909 0.326598632 1.000000000
0.101873604 0.075725473 0.105965006 -0.000031266 -0.751909922 0.000451130 0.326598632 1.000000000
0.095116163 0.073381445 0.095557754 -0.001354982 -0.756285730 -0.001087304 0.326598632 1.000000000
0.096516982 0.074470824 0.094351731 -0.000354870 -0.752293434 -0.004261533 0.326598632 1.000000000
0.098042166 0.075674785 0.098548348 0.000530530 -0.752493726 0.000147026 0.326598632 1.000000000
0.095328954 0.075232752 0.097557855 -0.000178783 -0.752749179 -0.000148602 0.326598632 1.000000000
0.104815609 0.075791545 0.103114999 0.000380746 -0.753195761 0.000063716 0.326598632 1.000000000
0.097051725 0.070398401 0.101820326 -0.000925020 -0.760569102 0.002071132 0.326598632 1.000000000
0.100305339 0.074925726 0.103831308 0.000800584 -0.752328269 0.001643722 0.326598632 1.000000000
0.095045984 0.068789534 0.096932022 -0.001129111 -0.760076865 -0.000380561 0.326598632 1.000000000
0.104864500 0.071247135 0.102628965 0.001210513 -0.758764759 0.000237795 0.326598632 0.999900373
0.101365344 0.069416169 0.102876134 0.000097767 -0.759429596 0.000520078 0.326598632 1.000000000
0.102856883 0.072504579 0.099226021 0.000354395 -0.756122642 -0.000294405 0.326598632 0.999435030
0.097047597 0.074636760 0.103674455 -0.000679413 -0.754254584 0.000693698 0.326598632 1.000000000
0.095276090 0.073801117 0.094373112 -0.000228104 -0.754937454 -0.001831931 0.326598632 1.000000000
0.102180151 0.067916244 0.097778959 0.000783869 -0.761957232 -0.000506215 0.326598632 0.999953732
0.105901170 0.073128745 0.096005611 0.001722629 -0.756760818 0.000179711 0.326598632 1.000000000
0.098084609 0.068502902 0.094871840 0.000319571 -0.758144312 -0.001406540 0.326598632 1.000000000
0.098324509 0.069610495 0.104396785 -0.000164058 -0.758290528 0.000978809 0.326598632 0.999835984
0.098899607 0.073991791 0.094821886 -0.000463232 -0.756340979 -0.001190122 0.326598632 1.000000000
0.096793095 0.075115934 0.103111025 -0.000416175 -0.752854917 0.000265806 0.326598632 1.000000000
0.104786212 0.068358781 0.103688775 0.000288567 -0.759801143 0.000151978 0.326598632 1.000000000
0.094002075 0.074880882 0.101809293 -0.001236847 -0.752878107 0.000472490 0.326598632 1.000000000
0.098554100 0.071004340 0.096028794 0.000433809 -0.758231275 -0.001193389 0.326598632 1.000000000
0.095546082 0.070939618 0.096720559 -0.000682598 -0.755186149 -0.001370392 0.326598632 0.999581381
0.099748813 0.074305368 0.098953147 -0.000184556 -0.756442979 0.000089408 0.326598632 0.999994783
0.094326075 0.071258423 0.094215940 -0.000164856 -0.754196356 -0.000410411 0.326598632 0.999050815
0.102492355 0.068906274 0.105595251 0.000635700 -0.755719039 0.002199348 0.326598632 1.000000000
0.102391793 0.074494974 0.105673414 0.000056905 -0.755586420 0.000657382 0.326598632 1.000000000
0.101456035 0.075741552 0.104073738 -0.000658055 -0.752247782 0.001380961 0.326598632 1.000000000
0.100392108 0.072912167 0.100710032 -0.000015423 -0.758253614 -0.001237676 0.326598632 1.000000000
0.096620747 0.071485214 0.101621195 -0.003808035 -0.756822497 0.000836601 0.326598632 1.000000000
0.097159675 0.068432883 0.095442843 -0.000763011 -0.758961978 -0.000825061 0.326598632 1.000000000
